//X Y Z R G B Nx Ny Nz
-11.29976845 5.92867804 492.86267090 153 153 153 0.000000 0.000000 0.000000
-11.29042053 5.92771435 492.87310791 153 153 153 0.000000 0.000000 0.000000
-11.29686356 5.95216179 492.80166626 153 153 153 0.000000 0.000000 0.000000
-11.30307770 5.94575930 492.85223389 153 153 153 0.000000 0.000000 0.000000
-11.29147148 5.95845175 492.80291748 153 153 153 0.000000 0.000000 0.000000
-11.29671001 5.95356941 492.81320190 153 153 153 0.000000 0.000000 0.000000
-11.29785919 5.93525696 492.85778809 153 153 153 0.000000 0.000000 0.000000
-11.29980659 5.94433594 492.81985474 153 153 153 0.000000 0.000000 0.000000
-11.28926373 5.95506334 492.79470825 153 153 153 0.000000 0.000000 0.000000
-11.28709507 5.93662786 492.85104370 153 153 153 0.000000 0.000000 0.000000
-11.29531193 5.93147326 492.86614990 153 153 153 0.000000 0.000000 0.000000
-11.29863262 5.94475889 492.85076904 153 153 153 0.000000 0.000000 0.000000
-11.29790974 5.93352127 492.85705566 153 153 153 0.000000 0.000000 0.000000
-11.29178905 5.92683029 492.86212158 153 153 153 0.000000 0.000000 0.000000
-11.29627228 5.93602037 492.85372925 153 153 153 0.000000 0.000000 0.000000
-11.29902935 5.93782187 492.85687256 153 153 153 0.000000 0.000000 0.000000
-11.30035496 5.92836332 492.87167358 153 153 153 0.000000 0.000000 0.000000
-11.29607582 5.94636631 492.80410767 153 153 153 0.000000 0.000000 0.000000
-11.29318619 5.95885372 492.80136108 153 153 153 0.000000 0.000000 0.000000
-11.29197025 5.93824863 492.85919189 153 153 153 0.000000 0.000000 0.000000
-11.30078697 5.95088100 492.83514404 153 153 153 0.000000 0.000000 0.000000
-11.29720974 5.93112993 492.87460327 153 153 153 0.000000 0.000000 0.000000
-11.30235100 5.93888712 492.84185791 153 153 153 0.000000 0.000000 0.000000
-11.30199814 5.93429470 492.85125732 153 153 153 0.000000 0.000000 0.000000
-11.30073929 5.92915487 492.86459351 153 153 153 0.000000 0.000000 0.000000
-11.29262638 5.92469645 492.88058472 153 153 153 0.000000 0.000000 0.000000
-11.29328823 5.92384720 492.87976074 153 153 153 0.000000 0.000000 0.000000
-11.29308128 5.92751980 492.87835693 153 153 153 0.000000 0.000000 0.000000
-11.29305172 5.95300913 492.81820679 153 153 153 0.000000 0.000000 0.000000
-11.29820347 5.93761349 492.86148071 153 153 153 0.000000 0.000000 0.000000
-11.30107307 5.94638538 492.81790161 153 153 153 0.000000 0.000000 0.000000
-11.30025101 5.93146276 492.85653687 153 153 153 0.000000 0.000000 0.000000
-11.29320049 5.92731905 492.87780762 153 153 153 0.000000 0.000000 0.000000
-11.30258274 5.94254541 492.88052368 153 153 153 0.000000 0.000000 0.000000
-11.29872990 5.94197035 492.82989502 153 153 153 0.000000 0.000000 0.000000
-11.29707432 5.94922304 492.83172607 153 153 153 0.000000 0.000000 0.000000
-11.29188538 5.95711660 492.79742432 153 153 153 0.000000 0.000000 0.000000
-11.29741478 5.94607639 492.86090088 153 153 153 0.000000 0.000000 0.000000
-11.29894924 5.92707014 492.87646484 153 153 153 0.000000 0.000000 0.000000
-11.29357719 5.95533419 492.81875610 153 153 153 0.000000 0.000000 0.000000
-11.28921223 5.92593861 492.87289429 153 153 153 0.000000 0.000000 0.000000
-11.29391670 5.92856407 492.87313843 153 153 153 0.000000 0.000000 0.000000
-11.29509354 5.92594099 492.87680054 153 153 153 0.000000 0.000000 0.000000
-11.29483891 5.95051432 492.80227661 153 153 153 0.000000 0.000000 0.000000
-11.29244041 5.95907259 492.80532837 153 153 153 0.000000 0.000000 0.000000
-11.29520512 5.94910622 492.81634521 153 153 153 0.000000 0.000000 0.000000
-11.29373741 5.92385149 492.88241577 153 153 153 0.000000 0.000000 0.000000
-11.29785061 5.93209600 492.85852051 153 153 153 0.000000 0.000000 0.000000
-11.29778004 5.94282436 492.84420776 153 153 153 0.000000 0.000000 0.000000
-11.30057812 5.94746923 492.81066895 153 153 153 0.000000 0.000000 0.000000
-11.29001427 5.93580103 492.86633301 153 153 153 0.000000 0.000000 0.000000
-11.29246902 5.94487286 492.84814453 153 153 153 0.000000 0.000000 0.000000
-11.28965569 5.93460703 492.84820557 153 153 153 0.000000 0.000000 0.000000
-11.29846287 5.92729330 492.86462402 153 153 153 0.000000 0.000000 0.000000
-11.29332542 5.93044329 492.87866211 153 153 153 0.000000 0.000000 0.000000
-11.29647350 5.92602205 492.87026978 153 153 153 0.000000 0.000000 0.000000
-11.29780293 5.93069839 492.86135864 153 153 153 0.000000 0.000000 0.000000
-11.29454994 5.95504951 492.79800415 153 153 153 0.000000 0.000000 0.000000
-11.29683876 5.94184589 492.84762573 153 153 153 0.000000 0.000000 0.000000
-11.29176140 5.92653799 492.86651611 153 153 153 0.000000 0.000000 0.000000
-11.29691315 5.94038200 492.86114502 153 153 153 0.000000 0.000000 0.000000
-11.29276276 5.92391682 492.88235474 153 153 153 0.000000 0.000000 0.000000
-11.30396175 5.93145561 492.89175415 153 153 153 0.000000 0.000000 0.000000
-11.29075432 5.95383787 492.80743408 153 153 153 0.000000 0.000000 0.000000
-11.29668236 5.94545603 492.84011841 153 153 153 0.000000 0.000000 0.000000
-11.29933453 5.93762636 492.85784912 153 153 153 0.000000 0.000000 0.000000
-11.29683018 5.94898701 492.83706665 153 153 153 0.000000 0.000000 0.000000
-11.29623604 5.93968534 492.83096313 153 153 153 0.000000 0.000000 0.000000
-11.29837132 5.95081902 492.84457397 153 153 153 0.000000 0.000000 0.000000
-11.28979874 5.95114088 492.82421875 153 153 153 0.000000 0.000000 0.000000
-11.29822636 5.93752432 492.84512329 153 153 153 0.000000 0.000000 0.000000
-11.29984188 5.93192291 492.86212158 153 153 153 0.000000 0.000000 0.000000
-11.29384995 5.92560863 492.88375854 153 153 153 0.000000 0.000000 0.000000
-11.28985500 5.92962503 492.86566162 153 153 153 0.000000 0.000000 0.000000
-11.29257011 5.95712280 492.80499268 153 153 153 0.000000 0.000000 0.000000
-11.29643726 5.92683268 492.87380981 153 153 153 0.000000 0.000000 0.000000
-11.29734898 5.95525551 492.81350708 153 153 153 0.000000 0.000000 0.000000
-11.29168129 5.93226099 492.88256836 153 153 153 0.000000 0.000000 0.000000
-11.29593849 5.94462872 492.84063721 153 153 153 0.000000 0.000000 0.000000
-11.29133606 5.94839430 492.82769775 153 153 153 0.000000 0.000000 0.000000
-11.29895592 5.93643618 492.85885620 153 153 153 0.000000 0.000000 0.000000
-11.29716015 5.94275331 492.84716797 153 153 153 0.000000 0.000000 0.000000
-11.29476738 5.94868708 492.82446289 153 153 153 0.000000 0.000000 0.000000
-11.28821659 5.93760109 492.85079956 153 153 153 0.000000 0.000000 0.000000
-11.28934479 5.94266129 492.86062622 153 153 153 0.000000 0.000000 0.000000
-11.29749680 5.93393707 492.85485840 153 153 153 0.000000 0.000000 0.000000
-11.29388142 5.93121576 492.87493896 153 153 153 0.000000 0.000000 0.000000
-11.29275608 5.92704725 492.87881470 153 153 153 0.000000 0.000000 0.000000
-11.29900742 5.93138266 492.85812378 153 153 153 0.000000 0.000000 0.000000
-11.29548931 5.92744541 492.87951660 153 153 153 0.000000 0.000000 0.000000
-11.29418659 5.94419622 492.85073853 153 153 153 0.000000 0.000000 0.000000
-11.29587173 5.92828369 492.85403442 153 153 153 0.000000 0.000000 0.000000
-11.29373646 5.94982004 492.79830933 153 153 153 0.000000 0.000000 0.000000
-11.29688549 5.93829393 492.86276245 153 153 153 0.000000 0.000000 0.000000
-11.29313946 5.94028425 492.86743164 153 153 153 0.000000 0.000000 0.000000
-11.29837704 5.93693209 492.85952759 153 153 153 0.000000 0.000000 0.000000
-11.29669380 5.92580557 492.87484741 153 153 153 0.000000 0.000000 0.000000
-11.30004883 5.92941046 492.89056396 153 153 153 0.000000 0.000000 0.000000
-11.28717709 5.95525980 492.81219482 153 153 153 0.000000 0.000000 0.000000
-11.29608250 5.95012236 492.83944702 153 153 153 0.000000 0.000000 0.000000
-11.30043411 5.93105364 492.85366821 153 153 153 0.000000 0.000000 0.000000
-11.29364777 5.94095898 492.85684204 153 153 153 0.000000 0.000000 0.000000
-11.29443359 5.95243979 492.84045410 153 153 153 0.000000 0.000000 0.000000
-11.30053329 5.94346762 492.83126831 153 153 153 0.000000 0.000000 0.000000
-11.29484940 5.95774364 492.79309082 153 153 153 0.000000 0.000000 0.000000
-11.29472065 5.92665482 492.87924194 153 153 153 0.000000 0.000000 0.000000
-11.29343128 5.95998001 492.80041504 153 153 153 0.000000 0.000000 0.000000
-11.29610634 5.95443916 492.80026245 153 153 153 0.000000 0.000000 0.000000
-11.29891396 5.93609285 492.84173584 153 153 153 0.000000 0.000000 0.000000
-11.28879070 5.92975283 492.85723877 153 153 153 0.000000 0.000000 0.000000
-11.29257488 5.96176767 492.79837036 153 153 153 0.000000 0.000000 0.000000
-11.29897118 5.92594004 492.87533569 153 153 153 0.000000 0.000000 0.000000
-11.29323673 5.95252514 492.81817627 153 153 153 0.000000 0.000000 0.000000
-11.29593849 5.92504835 492.87432861 153 153 153 0.000000 0.000000 0.000000
-11.29226303 5.94365168 492.85397339 153 153 153 0.000000 0.000000 0.000000
-11.29874802 5.93517494 492.85684204 153 153 153 0.000000 0.000000 0.000000
-11.29683399 5.94503784 492.81942749 153 153 153 0.000000 0.000000 0.000000
-11.29059887 5.93425131 492.86361694 153 153 153 0.000000 0.000000 0.000000
-11.29747295 5.92706394 492.87487793 153 153 153 0.000000 0.000000 0.000000
-11.29142284 5.95860004 492.78601074 153 153 153 0.000000 0.000000 0.000000
-11.28909588 5.93682528 492.85403442 153 153 153 0.000000 0.000000 0.000000
-11.29863644 5.93221951 492.85467529 153 153 153 0.000000 0.000000 0.000000
-11.29469585 5.92919493 492.87576294 153 153 153 0.000000 0.000000 0.000000
-11.30024815 5.95276594 492.81454468 153 153 153 0.000000 0.000000 0.000000
-11.29474735 5.92729378 492.88064575 153 153 153 0.000000 0.000000 0.000000
-11.29764557 5.94182110 492.84896851 153 153 153 0.000000 0.000000 0.000000
-11.29099560 5.92866611 492.86639404 153 153 153 0.000000 0.000000 0.000000
-11.30157948 5.93694019 492.85958862 153 153 153 0.000000 0.000000 0.000000
-11.29443741 5.92921543 492.87457275 153 153 153 0.000000 0.000000 0.000000
-11.29149151 5.95632696 492.81094360 153 153 153 0.000000 0.000000 0.000000
-11.29653168 5.94948530 492.83691406 153 153 153 0.000000 0.000000 0.000000
-11.29500103 5.94986439 492.82705688 153 153 153 0.000000 0.000000 0.000000
-11.29092693 5.94193506 492.85873413 153 153 153 0.000000 0.000000 0.000000
-11.28964233 5.94858932 492.84460449 153 153 153 0.000000 0.000000 0.000000
-11.30076790 5.94121933 492.87536621 153 153 153 0.000000 0.000000 0.000000
-11.29776955 5.94188976 492.82745361 153 153 153 0.000000 0.000000 0.000000
-11.29239845 5.94882870 492.82562256 153 153 153 0.000000 0.000000 0.000000
-11.29343605 5.95777607 492.79620361 153 153 153 0.000000 0.000000 0.000000
-11.29746151 5.95282459 492.84921265 153 153 153 0.000000 0.000000 0.000000
-11.29611492 5.92666101 492.87207031 153 153 153 0.000000 0.000000 0.000000
-11.29912567 5.94184494 492.84124756 153 153 153 0.000000 0.000000 0.000000
-11.29820919 5.93898726 492.84878540 153 153 153 0.000000 0.000000 0.000000
-11.29986286 5.92900610 492.85980225 153 153 153 0.000000 0.000000 0.000000
-11.30003548 5.92640400 492.88107300 153 153 153 0.000000 0.000000 0.000000
-11.29245090 5.92499113 492.87667847 153 153 153 0.000000 0.000000 0.000000
-11.30100632 5.94349003 492.85507202 153 153 153 0.000000 0.000000 0.000000
-11.29714489 5.93772745 492.84353638 153 153 153 0.000000 0.000000 0.000000
-11.29349041 5.92802191 492.85885620 153 153 153 0.000000 0.000000 0.000000
-11.30056858 5.92688656 492.87698364 153 153 153 0.000000 0.000000 0.000000
-11.29840279 5.95606184 492.80822754 153 153 153 0.000000 0.000000 0.000000
-11.29539204 5.94669247 492.84872437 153 153 153 0.000000 0.000000 0.000000
-11.29916954 5.94805622 492.81701660 153 153 153 0.000000 0.000000 0.000000
-11.29059601 5.93514872 492.86660767 153 153 153 0.000000 0.000000 0.000000
-11.30056381 5.95002365 492.84262085 153 153 153 0.000000 0.000000 0.000000
-11.28735924 5.93784189 492.85147095 153 153 153 0.000000 0.000000 0.000000
-11.29234695 5.94323349 492.85671997 153 153 153 0.000000 0.000000 0.000000
-11.29877472 5.94092703 492.86102295 153 153 153 0.000000 0.000000 0.000000
-11.29611206 5.93070221 492.87759399 153 153 153 0.000000 0.000000 0.000000
-11.29851818 5.93039989 492.87338257 153 153 153 0.000000 0.000000 0.000000
-11.29484177 5.92753172 492.88058472 153 153 153 0.000000 0.000000 0.000000
-11.29489517 5.94181347 492.84838867 153 153 153 0.000000 0.000000 0.000000
-11.29611969 5.95476103 492.79476929 153 153 153 0.000000 0.000000 0.000000
-11.29806137 5.93981409 492.86138916 153 153 153 0.000000 0.000000 0.000000
-11.29269314 5.93257809 492.86743164 153 153 153 0.000000 0.000000 0.000000
-11.29349041 5.93975353 492.86770630 153 153 153 0.000000 0.000000 0.000000
-11.29891682 5.94397211 492.84103394 153 153 153 0.000000 0.000000 0.000000
-11.29662132 5.92711639 492.87631226 153 153 153 0.000000 0.000000 0.000000
-11.30423164 5.92645168 492.88723755 153 153 153 0.000000 0.000000 0.000000
-11.29932880 5.94928408 492.80929565 153 153 153 0.000000 0.000000 0.000000
-11.29382896 5.95746660 492.80545044 153 153 153 0.000000 0.000000 0.000000
-11.29668140 5.94999075 492.83636475 153 153 153 0.000000 0.000000 0.000000
-11.29347706 5.95035172 492.81588745 153 153 153 0.000000 0.000000 0.000000
-11.29459858 5.93739557 492.86312866 153 153 153 0.000000 0.000000 0.000000
-11.29880619 5.94615030 492.82925415 153 153 153 0.000000 0.000000 0.000000
-11.29670715 5.95237064 492.82641602 153 153 153 0.000000 0.000000 0.000000
-11.29306221 5.95913839 492.78991699 153 153 153 0.000000 0.000000 0.000000
-11.30045795 5.94348097 492.82858276 153 153 153 0.000000 0.000000 0.000000
-11.30129910 5.93712902 492.85485840 153 153 153 0.000000 0.000000 0.000000
-11.29670811 5.92363548 492.88290405 153 153 153 0.000000 0.000000 0.000000
-11.29925823 5.92924738 492.85723877 153 153 153 0.000000 0.000000 0.000000
-11.29086304 5.95938492 492.80111694 153 153 153 0.000000 0.000000 0.000000
-11.28822899 5.94459534 492.83767700 153 153 153 0.000000 0.000000 0.000000
-11.28776169 5.94609118 492.83728027 153 153 153 0.000000 0.000000 0.000000
-11.29317665 5.92494059 492.87994385 153 153 153 0.000000 0.000000 0.000000
-11.29046154 5.95770931 492.80108643 153 153 153 0.000000 0.000000 0.000000
-11.29230976 5.94997978 492.81921387 153 153 153 0.000000 0.000000 0.000000
-11.29955578 5.92568398 492.87683105 153 153 153 0.000000 0.000000 0.000000
-11.29150581 5.95028734 492.81878662 153 153 153 0.000000 0.000000 0.000000
-11.29874516 5.93594599 492.86254883 153 153 153 0.000000 0.000000 0.000000
-11.29883003 5.93113470 492.87261963 153 153 153 0.000000 0.000000 0.000000
-11.29141617 5.93979359 492.85339355 153 153 153 0.000000 0.000000 0.000000
-11.29933548 5.94841194 492.81866455 153 153 153 0.000000 0.000000 0.000000
-11.29671478 5.95652914 492.79486084 153 153 153 0.000000 0.000000 0.000000
-11.29257202 5.94152164 492.85009766 153 153 153 0.000000 0.000000 0.000000
-11.29994011 5.93237162 492.85644531 153 153 153 0.000000 0.000000 0.000000
-11.29591942 5.92558813 492.87039185 153 153 153 0.000000 0.000000 0.000000
-11.29559612 5.93057823 492.88085938 153 153 153 0.000000 0.000000 0.000000
-11.29371738 5.93987370 492.85775757 153 153 153 0.000000 0.000000 0.000000
-11.29832554 5.92952681 492.85525513 153 153 153 0.000000 0.000000 0.000000
-11.29680347 5.93879175 492.85714722 153 153 153 0.000000 0.000000 0.000000
-11.29219341 5.92637157 492.86749268 153 153 153 0.000000 0.000000 0.000000
-11.29705048 5.93557835 492.86059570 153 153 153 0.000000 0.000000 0.000000
-11.29706478 5.94178677 492.84176636 153 153 153 0.000000 0.000000 0.000000
-11.29313755 5.92592859 492.87640381 153 153 153 0.000000 0.000000 0.000000
-11.29683399 5.93269730 492.87680054 153 153 153 0.000000 0.000000 0.000000
-11.29583931 5.94553280 492.84143066 153 153 153 0.000000 0.000000 0.000000
-11.29977989 5.92575359 492.89001465 153 153 153 0.000000 0.000000 0.000000
-11.29962063 5.94586229 492.83416748 153 153 153 0.000000 0.000000 0.000000
-11.30073357 5.93741083 492.84829712 153 153 153 0.000000 0.000000 0.000000
-11.29245567 5.94710159 492.84335327 153 153 153 0.000000 0.000000 0.000000
-11.29807568 5.95058823 492.82647705 153 153 153 0.000000 0.000000 0.000000
-11.29904461 5.93851089 492.84478760 153 153 153 0.000000 0.000000 0.000000
-11.30096340 5.93773603 492.85131836 153 153 153 0.000000 0.000000 0.000000
-11.30163479 5.92832184 492.86413574 153 153 153 0.000000 0.000000 0.000000
-11.30377769 5.94347906 492.84732056 153 153 153 0.000000 0.000000 0.000000
-11.29380035 5.92747879 492.86013794 153 153 153 0.000000 0.000000 0.000000
-11.29246998 5.95952177 492.80450439 153 153 153 0.000000 0.000000 0.000000
-11.29404736 5.92813158 492.87466431 153 153 153 0.000000 0.000000 0.000000
-11.29726505 5.92792225 492.87203979 153 153 153 0.000000 0.000000 0.000000
-11.29567242 5.92574787 492.87866211 153 153 153 0.000000 0.000000 0.000000
-11.29882622 5.93440914 492.85705566 153 153 153 0.000000 0.000000 0.000000
-11.29988003 5.94506121 492.81726074 153 153 153 0.000000 0.000000 0.000000
-11.29004288 5.93292904 492.85778809 153 153 153 0.000000 0.000000 0.000000
-11.29251385 5.94028568 492.86611938 153 153 153 0.000000 0.000000 0.000000
-11.29881001 5.92910433 492.85873413 153 153 153 0.000000 0.000000 0.000000
-11.29355240 5.92601824 492.87863159 153 153 153 0.000000 0.000000 0.000000
-11.29602623 5.95242786 492.82205200 153 153 153 0.000000 0.000000 0.000000
-11.29428768 5.92638206 492.88458252 153 153 153 0.000000 0.000000 0.000000
-11.28595066 5.93650055 492.85305786 153 153 153 0.000000 0.000000 0.000000
-11.29804039 5.94222355 492.85894775 153 153 153 0.000000 0.000000 0.000000
-11.29673195 5.93806601 492.85348511 153 153 153 0.000000 0.000000 0.000000
-11.28969383 5.92904806 492.86163330 153 153 153 0.000000 0.000000 0.000000
-11.29674244 5.92485809 492.87673950 153 153 153 0.000000 0.000000 0.000000
-11.29700947 5.93627405 492.87939453 153 153 153 0.000000 0.000000 0.000000
-11.29907227 5.95514631 492.81008911 153 153 153 0.000000 0.000000 0.000000
-11.29838562 5.94559288 492.83181763 153 153 153 0.000000 0.000000 0.000000
-11.29752731 5.94970226 492.84048462 153 153 153 0.000000 0.000000 0.000000
-11.29458809 5.94754267 492.82986450 153 153 153 0.000000 0.000000 0.000000
-11.29379654 5.95334911 492.82537842 153 153 153 0.000000 0.000000 0.000000
-11.29644775 5.92689896 492.87222290 153 153 153 0.000000 0.000000 0.000000
-11.29908085 5.93882608 492.84182739 153 153 153 0.000000 0.000000 0.000000
-11.29477787 5.95849276 492.81127930 153 153 153 0.000000 0.000000 0.000000
-11.28669548 5.95355797 492.83270264 153 153 153 0.000000 0.000000 0.000000
-11.30070114 5.92891598 492.86322021 153 153 153 0.000000 0.000000 0.000000
-11.30012894 5.95441055 492.82446289 153 153 153 0.000000 0.000000 0.000000
-11.30003929 5.94611835 492.85235596 153 153 153 0.000000 0.000000 0.000000
-11.29111290 5.95895481 492.80581665 153 153 153 0.000000 0.000000 0.000000
-11.29164600 5.95111847 492.82104492 153 153 153 0.000000 0.000000 0.000000
-11.29539871 5.92999172 492.87927246 153 153 153 0.000000 0.000000 0.000000
-11.29069996 5.93973160 492.85263062 153 153 153 0.000000 0.000000 0.000000
-11.29674244 5.94458151 492.82025146 153 153 153 0.000000 0.000000 0.000000
-11.28963470 5.96135902 492.79507446 153 153 153 0.000000 0.000000 0.000000
-11.28919697 5.93649912 492.85354614 153 153 153 0.000000 0.000000 0.000000
-11.29407406 5.93960094 492.86337280 153 153 153 0.000000 0.000000 0.000000
-11.29943466 5.93288422 492.86154175 153 153 153 0.000000 0.000000 0.000000
-11.29609394 5.92557383 492.87371826 153 153 153 0.000000 0.000000 0.000000
-11.29242325 5.92599440 492.88220215 153 153 153 0.000000 0.000000 0.000000
-11.29710579 5.93676090 492.85375977 153 153 153 0.000000 0.000000 0.000000
-11.29128265 5.92876625 492.86413574 153 153 153 0.000000 0.000000 0.000000
-11.29399490 5.93704987 492.86944580 153 153 153 0.000000 0.000000 0.000000
-11.29648304 5.93203497 492.86331177 153 153 153 0.000000 0.000000 0.000000
-11.29615688 5.92609882 492.87228394 153 153 153 0.000000 0.000000 0.000000
-11.30355167 5.92600632 492.88427734 153 153 153 0.000000 0.000000 0.000000
-11.29202652 5.95593214 492.80551147 153 153 153 0.000000 0.000000 0.000000
-11.29528618 5.94991064 492.83401489 153 153 153 0.000000 0.000000 0.000000
-11.29953384 5.93309975 492.85665894 153 153 153 0.000000 0.000000 0.000000
-11.29295540 5.93615484 492.86633301 153 153 153 0.000000 0.000000 0.000000
-11.29726601 5.94368172 492.82272339 153 153 153 0.000000 0.000000 0.000000
-11.29879093 5.94899225 492.83889771 153 153 153 0.000000 0.000000 0.000000
-11.29789257 5.95015717 492.82656860 153 153 153 0.000000 0.000000 0.000000
-11.30311584 5.93677330 492.85601807 153 153 153 0.000000 0.000000 0.000000
-11.30053806 5.94849396 492.84912109 153 153 153 0.000000 0.000000 0.000000
-11.28777599 5.92627764 492.86831665 153 153 153 0.000000 0.000000 0.000000
-11.29236126 5.95610714 492.80075073 153 153 153 0.000000 0.000000 0.000000
-11.29497147 5.94857931 492.82052612 153 153 153 0.000000 0.000000 0.000000
-11.29479218 5.92666674 492.87747192 153 153 153 0.000000 0.000000 0.000000
-11.29927635 5.93460131 492.85720825 153 153 153 0.000000 0.000000 0.000000
-11.29856205 5.94623661 492.81396484 153 153 153 0.000000 0.000000 0.000000
-11.28850365 5.93696833 492.84771729 153 153 153 0.000000 0.000000 0.000000
-11.28886604 5.94023323 492.86010742 153 153 153 0.000000 0.000000 0.000000
-11.29880619 5.93104029 492.86206055 153 153 153 0.000000 0.000000 0.000000
-11.29624081 5.92795181 492.87155151 153 153 153 0.000000 0.000000 0.000000
-11.29433441 5.92892122 492.87002563 153 153 153 0.000000 0.000000 0.000000
-11.29348087 5.92484570 492.87817383 153 153 153 0.000000 0.000000 0.000000
-11.29704857 5.95430803 492.79470825 153 153 153 0.000000 0.000000 0.000000
-11.29872417 5.93820572 492.85339355 153 153 153 0.000000 0.000000 0.000000
-11.29420948 5.92738676 492.87124634 153 153 153 0.000000 0.000000 0.000000
-11.29377365 5.93742895 492.86227417 153 153 153 0.000000 0.000000 0.000000
-11.29623127 5.92478037 492.87850952 153 153 153 0.000000 0.000000 0.000000
-11.29663277 5.95759869 492.80972290 153 153 153 0.000000 0.000000 0.000000
-11.29696941 5.94480419 492.84161377 153 153 153 0.000000 0.000000 0.000000
-11.29238701 5.93829441 492.85818481 153 153 153 0.000000 0.000000 0.000000
-11.29482365 5.94583797 492.83697510 153 153 153 0.000000 0.000000 0.000000
-11.29625607 5.94814491 492.83636475 153 153 153 0.000000 0.000000 0.000000
-11.29521465 5.95277309 492.82189941 153 153 153 0.000000 0.000000 0.000000
-11.28976154 5.92643166 492.87774658 153 153 153 0.000000 0.000000 0.000000
-11.30042744 5.93548393 492.84042358 153 153 153 0.000000 0.000000 0.000000
-11.29582882 5.92395401 492.88281250 153 153 153 0.000000 0.000000 0.000000
-11.29020023 5.96049595 492.79815674 153 153 153 0.000000 0.000000 0.000000
-11.29835606 5.93665648 492.84210205 153 153 153 0.000000 0.000000 0.000000
-11.29244995 5.95974112 492.80108643 153 153 153 0.000000 0.000000 0.000000
-11.29104805 5.94997168 492.81994629 153 153 153 0.000000 0.000000 0.000000
-11.29641628 5.92478704 492.87850952 153 153 153 0.000000 0.000000 0.000000
-11.29196072 5.94278288 492.84637451 153 153 153 0.000000 0.000000 0.000000
-11.29806614 5.94562674 492.81826782 153 153 153 0.000000 0.000000 0.000000
-11.28790379 5.93927479 492.84552002 153 153 153 0.000000 0.000000 0.000000
-11.28930187 5.94095373 492.86233521 153 153 153 0.000000 0.000000 0.000000
-11.30010509 5.93095875 492.86010742 153 153 153 0.000000 0.000000 0.000000
-11.29785633 5.92919493 492.87216187 153 153 153 0.000000 0.000000 0.000000
-11.29516602 5.92702341 492.88009644 153 153 153 0.000000 0.000000 0.000000
-11.29764843 5.94200182 492.85412598 153 153 153 0.000000 0.000000 0.000000
-11.29804707 5.93787193 492.85229492 153 153 153 0.000000 0.000000 0.000000
-11.29222393 5.92865372 492.86178589 153 153 153 0.000000 0.000000 0.000000
-11.29968262 5.92803764 492.87823486 153 153 153 0.000000 0.000000 0.000000
-11.29623508 5.94925785 492.83279419 153 153 153 0.000000 0.000000 0.000000
-11.29942417 5.93277693 492.85681152 153 153 153 0.000000 0.000000 0.000000
-11.29487324 5.92933702 492.90121460 153 153 153 0.000000 0.000000 0.000000
-11.29818153 5.94853735 492.82952881 153 153 153 0.000000 0.000000 0.000000
-11.29356289 5.94783545 492.82409668 153 153 153 0.000000 0.000000 0.000000
-11.29369831 5.92668438 492.87249756 153 153 153 0.000000 0.000000 0.000000
-11.29725266 5.92503357 492.87530518 153 153 153 0.000000 0.000000 0.000000
-11.29788494 5.93801689 492.83825684 153 153 153 0.000000 0.000000 0.000000
-11.29977703 5.93440771 492.85482788 153 153 153 0.000000 0.000000 0.000000
-11.29451466 5.94328880 492.85037231 153 153 153 0.000000 0.000000 0.000000
-11.29304314 5.96053696 492.80270386 153 153 153 0.000000 0.000000 0.000000
-11.29775047 5.92372370 492.88021851 153 153 153 0.000000 0.000000 0.000000
-11.29331684 5.95189905 492.81719971 153 153 153 0.000000 0.000000 0.000000
-11.29905891 5.94916487 492.81723022 153 153 153 0.000000 0.000000 0.000000
-11.29529667 5.92468977 492.87536621 153 153 153 0.000000 0.000000 0.000000
-11.28865814 5.93588352 492.85113525 153 153 153 0.000000 0.000000 0.000000
-11.29358482 5.93825769 492.86511230 153 153 153 0.000000 0.000000 0.000000
-11.29902840 5.93243361 492.85635376 153 153 153 0.000000 0.000000 0.000000
-11.29614353 5.92464161 492.87561035 153 153 153 0.000000 0.000000 0.000000
-11.29866982 5.95167255 492.81658936 153 153 153 0.000000 0.000000 0.000000
-11.29710197 5.92793179 492.88391113 153 153 153 0.000000 0.000000 0.000000
-11.29587460 5.94340420 492.85064697 153 153 153 0.000000 0.000000 0.000000
-11.29599380 5.94127750 492.86083984 153 153 153 0.000000 0.000000 0.000000
-11.29881382 5.93572140 492.86007690 153 153 153 0.000000 0.000000 0.000000
-11.29398823 5.92413902 492.88171387 153 153 153 0.000000 0.000000 0.000000
-11.29271317 5.95755005 492.80123901 153 153 153 0.000000 0.000000 0.000000
-11.29527950 5.94763803 492.84069824 153 153 153 0.000000 0.000000 0.000000
-11.29385185 5.93775272 492.86291504 153 153 153 0.000000 0.000000 0.000000
-11.29974556 5.94700146 492.83627319 153 153 153 0.000000 0.000000 0.000000
-11.28965950 5.95315361 492.79556274 153 153 153 0.000000 0.000000 0.000000
-11.29751682 5.92690945 492.87478638 153 153 153 0.000000 0.000000 0.000000
-11.30169964 5.94171000 492.83493042 153 153 153 0.000000 0.000000 0.000000
-11.29160213 5.95488739 492.81121826 153 153 153 0.000000 0.000000 0.000000
-11.29862881 5.93905163 492.85546875 153 153 153 0.000000 0.000000 0.000000
-11.29392147 5.92820644 492.87960815 153 153 153 0.000000 0.000000 0.000000
-11.29510307 5.95077133 492.80422974 153 153 153 0.000000 0.000000 0.000000
-11.28957653 5.96116447 492.80209351 153 153 153 0.000000 0.000000 0.000000
-11.29171371 5.92620277 492.87127686 153 153 153 0.000000 0.000000 0.000000
-11.29206562 5.93179941 492.86056519 153 153 153 0.000000 0.000000 0.000000
-11.29178810 5.95922518 492.79745483 153 153 153 0.000000 0.000000 0.000000
-11.29140091 5.94449520 492.82110596 153 153 153 0.000000 0.000000 0.000000
-11.29607201 5.92970800 492.87225342 153 153 153 0.000000 0.000000 0.000000
-11.30125332 5.94714785 492.82360840 153 153 153 0.000000 0.000000 0.000000
-11.29733372 5.92863560 492.87265015 153 153 153 0.000000 0.000000 0.000000
-11.28999138 5.93644857 492.85198975 153 153 153 0.000000 0.000000 0.000000
-11.29309845 5.93957615 492.86614990 153 153 153 0.000000 0.000000 0.000000
-11.29745960 5.93117619 492.85452271 153 153 153 0.000000 0.000000 0.000000
-11.29681206 5.92680550 492.87207031 153 153 153 0.000000 0.000000 0.000000
-11.29423141 5.92496300 492.88449097 153 153 153 0.000000 0.000000 0.000000
-11.29601765 5.94115686 492.85055542 153 153 153 0.000000 0.000000 0.000000
-11.29448986 5.95518398 492.79531860 153 153 153 0.000000 0.000000 0.000000
-11.29783344 5.93590212 492.85900879 153 153 153 0.000000 0.000000 0.000000
-11.29331398 5.93830538 492.86587524 153 153 153 0.000000 0.000000 0.000000
-11.29875755 5.93711853 492.85986328 153 153 153 0.000000 0.000000 0.000000
-11.29494095 5.92648602 492.87622070 153 153 153 0.000000 0.000000 0.000000
-11.30265045 5.92816830 492.89077759 153 153 153 0.000000 0.000000 0.000000
-11.29240608 5.95265245 492.80538940 153 153 153 0.000000 0.000000 0.000000
-11.29720116 5.94854116 492.84179688 153 153 153 0.000000 0.000000 0.000000
-11.29809475 5.93596506 492.86502075 153 153 153 0.000000 0.000000 0.000000
-11.29242325 5.94706202 492.81924438 153 153 153 0.000000 0.000000 0.000000
-11.29984951 5.94105721 492.87933350 153 153 153 0.000000 0.000000 0.000000
-11.29493618 5.95132875 492.82263184 153 153 153 0.000000 0.000000 0.000000
-11.29162979 5.92962646 492.86441040 153 153 153 0.000000 0.000000 0.000000
-11.29938126 5.92795134 492.87313843 153 153 153 0.000000 0.000000 0.000000
-11.29809475 5.93472195 492.84390259 153 153 153 0.000000 0.000000 0.000000
-11.30266857 5.93879461 492.85217285 153 153 153 0.000000 0.000000 0.000000
-11.30040073 5.92830944 492.86260986 153 153 153 0.000000 0.000000 0.000000
-11.29500866 5.94466543 492.85638428 153 153 153 0.000000 0.000000 0.000000
-11.29313946 5.93019009 492.85305786 153 153 153 0.000000 0.000000 0.000000
-11.29333210 5.96142006 492.80297852 153 153 153 0.000000 0.000000 0.000000
-11.29081726 5.95162153 492.82183838 153 153 153 0.000000 0.000000 0.000000
-11.29707432 5.92929125 492.87200928 153 153 153 0.000000 0.000000 0.000000
-11.29339790 5.93324137 492.88131714 153 153 153 0.000000 0.000000 0.000000
-11.29798698 5.94468594 492.82028198 153 153 153 0.000000 0.000000 0.000000
-11.29316711 5.93496895 492.87109375 153 153 153 0.000000 0.000000 0.000000
-11.29416180 5.92829990 492.88473511 153 153 153 0.000000 0.000000 0.000000
-11.28959274 5.93601179 492.85284424 153 153 153 0.000000 0.000000 0.000000
-11.29312325 5.93808317 492.86529541 153 153 153 0.000000 0.000000 0.000000
-11.29502964 5.93018055 492.85971069 153 153 153 0.000000 0.000000 0.000000
-11.29659462 5.92683601 492.87295532 153 153 153 0.000000 0.000000 0.000000
-11.29252338 5.92501688 492.88269043 153 153 153 0.000000 0.000000 0.000000
-11.29527092 5.94357777 492.85400391 153 153 153 0.000000 0.000000 0.000000
-11.29180717 5.93787050 492.85897827 153 153 153 0.000000 0.000000 0.000000
-11.29230976 5.92610312 492.86834717 153 153 153 0.000000 0.000000 0.000000
-11.29286289 5.93883944 492.86190796 153 153 153 0.000000 0.000000 0.000000
-11.29983425 5.93870163 492.85809326 153 153 153 0.000000 0.000000 0.000000
-11.29446793 5.92367125 492.87893677 153 153 153 0.000000 0.000000 0.000000
-11.29610252 5.92542648 492.87454224 153 153 153 0.000000 0.000000 0.000000
-11.30025578 5.95175552 492.80950928 153 153 153 0.000000 0.000000 0.000000
-11.29286003 5.95187855 492.83483887 153 153 153 0.000000 0.000000 0.000000
-11.28862572 5.94387817 492.82690430 153 153 153 0.000000 0.000000 0.000000
-11.29298687 5.93982029 492.86199951 153 153 153 0.000000 0.000000 0.000000
-11.30003071 5.94377232 492.83096313 153 153 153 0.000000 0.000000 0.000000
-11.29658508 5.94641161 492.84103394 153 153 153 0.000000 0.000000 0.000000
-11.29541588 5.95151138 492.82666016 153 153 153 0.000000 0.000000 0.000000
-11.29243946 5.92375374 492.88220215 153 153 153 0.000000 0.000000 0.000000
-11.29430103 5.92652750 492.87387085 153 153 153 0.000000 0.000000 0.000000
-11.29687500 5.92591572 492.87530518 153 153 153 0.000000 0.000000 0.000000
-11.29806042 5.94051170 492.84353638 153 153 153 0.000000 0.000000 0.000000
-11.29830456 5.93902540 492.85269165 153 153 153 0.000000 0.000000 0.000000
-11.30031300 5.92732048 492.86312866 153 153 153 0.000000 0.000000 0.000000
-11.29856491 5.93619967 492.86483765 153 153 153 0.000000 0.000000 0.000000
-11.29292393 5.95709085 492.80218506 153 153 153 0.000000 0.000000 0.000000
-11.29553509 5.93450928 492.84255981 153 153 153 0.000000 0.000000 0.000000
-11.28818130 5.92793989 492.86511230 153 153 153 0.000000 0.000000 0.000000
-11.29303074 5.95486069 492.80307007 153 153 153 0.000000 0.000000 0.000000
-11.29229927 5.94713640 492.81796265 153 153 153 0.000000 0.000000 0.000000
-11.29724789 5.94576406 492.84548950 153 153 153 0.000000 0.000000 0.000000
-11.29104137 5.96140480 492.79855347 153 153 153 0.000000 0.000000 0.000000
-11.28994942 5.93453455 492.85299683 153 153 153 0.000000 0.000000 0.000000
-11.28771114 5.93917513 492.85937500 153 153 153 0.000000 0.000000 0.000000
-11.29869843 5.93006134 492.86154175 153 153 153 0.000000 0.000000 0.000000
-11.29607296 5.92821360 492.87353516 153 153 153 0.000000 0.000000 0.000000
-11.29739857 5.93685246 492.85446167 153 153 153 0.000000 0.000000 0.000000
-11.29303265 5.94011307 492.85870361 153 153 153 0.000000 0.000000 0.000000
-11.29303932 5.95785141 492.80175781 153 153 153 0.000000 0.000000 0.000000
-11.28968048 5.94732094 492.83795166 153 153 153 0.000000 0.000000 0.000000
-11.29287338 5.94320154 492.82788086 153 153 153 0.000000 0.000000 0.000000
-11.29901886 5.93220472 492.86050415 153 153 153 0.000000 0.000000 0.000000
-11.29532146 5.94168234 492.82794189 153 153 153 0.000000 0.000000 0.000000
-11.29353333 5.94802952 492.82858276 153 153 153 0.000000 0.000000 0.000000
-11.29154205 5.95267582 492.85665894 153 153 153 0.000000 0.000000 0.000000
-11.29503727 5.92801237 492.86795044 153 153 153 0.000000 0.000000 0.000000
-11.29260063 5.92655802 492.87954712 153 153 153 0.000000 0.000000 0.000000
-11.29405689 5.95728111 492.79602051 153 153 153 0.000000 0.000000 0.000000
-11.29905987 5.92645359 492.87478638 153 153 153 0.000000 0.000000 0.000000
-11.30067730 5.93723631 492.84295654 153 153 153 0.000000 0.000000 0.000000
-11.29823303 5.95118856 492.82757568 153 153 153 0.000000 0.000000 0.000000
-11.30344486 5.93034554 492.86395264 153 153 153 0.000000 0.000000 0.000000
-11.29549980 5.94389677 492.85238647 153 153 153 0.000000 0.000000 0.000000
-11.28998089 5.92704773 492.86340332 153 153 153 0.000000 0.000000 0.000000
-11.29148197 5.95971155 492.80673218 153 153 153 0.000000 0.000000 0.000000
-11.29631042 5.92419958 492.87924194 153 153 153 0.000000 0.000000 0.000000
-11.29313278 5.92806005 492.88037109 153 153 153 0.000000 0.000000 0.000000
-11.29399872 5.93968010 492.85003662 153 153 153 0.000000 0.000000 0.000000
-11.29744339 5.94371653 492.84628296 153 153 153 0.000000 0.000000 0.000000
-11.29803944 5.94538689 492.82122803 153 153 153 0.000000 0.000000 0.000000
-11.29196358 5.92439604 492.87924194 153 153 153 0.000000 0.000000 0.000000
-11.28833103 5.93777370 492.85003662 153 153 153 0.000000 0.000000 0.000000
-11.29908085 5.93263483 492.85568237 153 153 153 0.000000 0.000000 0.000000
-11.29630280 5.93314028 492.87918091 153 153 153 0.000000 0.000000 0.000000
-11.29593754 5.93174505 492.87454224 153 153 153 0.000000 0.000000 0.000000
-11.29864502 5.95391893 492.81216431 153 153 153 0.000000 0.000000 0.000000
-11.29491997 5.92732859 492.88107300 153 153 153 0.000000 0.000000 0.000000
-11.29720497 5.94208670 492.85470581 153 153 153 0.000000 0.000000 0.000000
-11.29351044 5.93778944 492.85769653 153 153 153 0.000000 0.000000 0.000000
-11.29465675 5.93567896 492.85607910 153 153 153 0.000000 0.000000 0.000000
-11.29614639 5.92573881 492.87292480 153 153 153 0.000000 0.000000 0.000000
-11.29379845 5.95766211 492.80841064 153 153 153 0.000000 0.000000 0.000000
-11.29666519 5.95104122 492.83862305 153 153 153 0.000000 0.000000 0.000000
-11.29401684 5.94045448 492.85830688 153 153 153 0.000000 0.000000 0.000000
-11.29823399 5.94287586 492.82675171 153 153 153 0.000000 0.000000 0.000000
-11.29229069 5.94939041 492.84259033 153 153 153 0.000000 0.000000 0.000000
-11.29028130 5.92683697 492.87063599 153 153 153 0.000000 0.000000 0.000000
-11.29701328 5.92780733 492.87023926 153 153 153 0.000000 0.000000 0.000000
-11.29108715 5.95858765 492.81301880 153 153 153 0.000000 0.000000 0.000000
-11.30291939 5.93621063 492.85601807 153 153 153 0.000000 0.000000 0.000000
-11.30086803 5.92801189 492.86383057 153 153 153 0.000000 0.000000 0.000000
-11.28771305 5.95891380 492.80288696 153 153 153 0.000000 0.000000 0.000000
-11.29291630 5.95828247 492.80007935 153 153 153 0.000000 0.000000 0.000000
-11.30269146 5.92815065 492.87728882 153 153 153 0.000000 0.000000 0.000000
-11.29120541 5.95294428 492.81484985 153 153 153 0.000000 0.000000 0.000000
-11.29545689 5.94772482 492.84579468 153 153 153 0.000000 0.000000 0.000000
-11.29116154 5.93446589 492.84552002 153 153 153 0.000000 0.000000 0.000000
-11.28845787 5.94027376 492.86120605 153 153 153 0.000000 0.000000 0.000000
-11.29737663 5.93073368 492.85516357 153 153 153 0.000000 0.000000 0.000000
-11.29716396 5.92744446 492.86990356 153 153 153 0.000000 0.000000 0.000000
-11.29402924 5.92582273 492.87841797 153 153 153 0.000000 0.000000 0.000000
-11.29338837 5.95221329 492.81796265 153 153 153 0.000000 0.000000 0.000000
-11.29437828 5.92769909 492.88040161 153 153 153 0.000000 0.000000 0.000000
-11.29655933 5.94297552 492.85369873 153 153 153 0.000000 0.000000 0.000000
-11.29568768 5.95456886 492.79571533 153 153 153 0.000000 0.000000 0.000000
-11.29849052 5.93655205 492.85852051 153 153 153 0.000000 0.000000 0.000000
-11.29875183 5.92681360 492.87594604 153 153 153 0.000000 0.000000 0.000000
-11.29310703 5.95711851 492.80233765 153 153 153 0.000000 0.000000 0.000000
-11.29702568 5.94963026 492.83892822 153 153 153 0.000000 0.000000 0.000000
-11.29335499 5.94126940 492.85748291 153 153 153 0.000000 0.000000 0.000000
-11.29550648 5.93464661 492.88864136 153 153 153 0.000000 0.000000 0.000000
-11.29575157 5.93872738 492.85861206 153 153 153 0.000000 0.000000 0.000000
-11.29884434 5.94479036 492.82693481 153 153 153 0.000000 0.000000 0.000000
-11.29820251 5.94898367 492.83972168 153 153 153 0.000000 0.000000 0.000000
-11.29735279 5.95095491 492.82727051 153 153 153 0.000000 0.000000 0.000000
-11.30027485 5.92772961 492.87161255 153 153 153 0.000000 0.000000 0.000000
-11.29855728 5.93694353 492.84262085 153 153 153 0.000000 0.000000 0.000000
-11.29269981 5.95574617 492.82360840 153 153 153 0.000000 0.000000 0.000000
-11.30326843 5.93640995 492.84945679 153 153 153 0.000000 0.000000 0.000000
-11.29627228 5.94492102 492.83786011 153 153 153 0.000000 0.000000 0.000000
-11.29248047 5.95803404 492.81951904 153 153 153 0.000000 0.000000 0.000000
-11.30290604 5.92598295 492.88650513 153 153 153 0.000000 0.000000 0.000000
-11.28989506 5.92610693 492.86712646 153 153 153 0.000000 0.000000 0.000000
-11.29303646 5.95876932 492.79864502 153 153 153 0.000000 0.000000 0.000000
-11.29614925 5.92364740 492.88305664 153 153 153 0.000000 0.000000 0.000000
-11.29493713 5.92825031 492.88052368 153 153 153 0.000000 0.000000 0.000000
-11.29783821 5.94506359 492.82058716 153 153 153 0.000000 0.000000 0.000000
-11.28742695 5.93591213 492.84967041 153 153 153 0.000000 0.000000 0.000000
-11.29994869 5.93213415 492.86010742 153 153 153 0.000000 0.000000 0.000000
-11.29628277 5.93168831 492.87185669 153 153 153 0.000000 0.000000 0.000000
-11.29565811 5.92598391 492.87826538 153 153 153 0.000000 0.000000 0.000000
-11.29434299 5.92697287 492.88046265 153 153 153 0.000000 0.000000 0.000000
-11.29817390 5.94266510 492.85235596 153 153 153 0.000000 0.000000 0.000000
-11.29761410 5.93762732 492.85464478 153 153 153 0.000000 0.000000 0.000000
-11.29316711 5.94020939 492.86337280 153 153 153 0.000000 0.000000 0.000000
-11.29911804 5.93834448 492.85791016 153 153 153 0.000000 0.000000 0.000000
-11.29533195 5.93433285 492.88272095 153 153 153 0.000000 0.000000 0.000000
-11.29376698 5.94631195 492.82638550 153 153 153 0.000000 0.000000 0.000000
-11.29449463 5.94048309 492.85568237 153 153 153 0.000000 0.000000 0.000000
-11.29996300 5.93154621 492.89193726 153 153 153 0.000000 0.000000 0.000000
-11.29833889 5.94883013 492.84045410 153 153 153 0.000000 0.000000 0.000000
-11.30048847 5.94868422 492.84478760 153 153 153 0.000000 0.000000 0.000000
-11.29684258 5.93790054 492.84396362 153 153 153 0.000000 0.000000 0.000000
-11.28961849 5.95429230 492.82199097 153 153 153 0.000000 0.000000 0.000000
-11.29583168 5.93139076 492.87451172 153 153 153 0.000000 0.000000 0.000000
-11.30067825 5.92352390 492.88491821 153 153 153 0.000000 0.000000 0.000000
-11.29549408 5.95686054 492.82357788 153 153 153 0.000000 0.000000 0.000000
-11.29696083 5.94493675 492.85156250 153 153 153 0.000000 0.000000 0.000000
-11.29069996 5.93051147 492.86123657 153 153 153 0.000000 0.000000 0.000000
-11.29137325 5.95867682 492.79989624 153 153 153 0.000000 0.000000 0.000000
-11.28816319 5.93472815 492.85205078 153 153 153 0.000000 0.000000 0.000000
-11.29794407 5.93134499 492.85528564 153 153 153 0.000000 0.000000 0.000000
-11.29351139 5.95148087 492.81558228 153 153 153 0.000000 0.000000 0.000000
-11.29469872 5.92778492 492.88037109 153 153 153 0.000000 0.000000 0.000000
-11.29729939 5.94248438 492.85519409 153 153 153 0.000000 0.000000 0.000000
-11.29486275 5.95539856 492.79437256 153 153 153 0.000000 0.000000 0.000000
-11.29747391 5.92589140 492.87411499 153 153 153 0.000000 0.000000 0.000000
-11.29445553 5.93510437 492.87783813 153 153 153 0.000000 0.000000 0.000000
-11.29326916 5.95795250 492.80718994 153 153 153 0.000000 0.000000 0.000000
-11.28988552 5.94964790 492.82025146 153 153 153 0.000000 0.000000 0.000000
-11.29847240 5.94026375 492.87265015 153 153 153 0.000000 0.000000 0.000000
-11.29838848 5.94496202 492.83120728 153 153 153 0.000000 0.000000 0.000000
-11.29769039 5.95007372 492.83602905 153 153 153 0.000000 0.000000 0.000000
-11.29324436 5.95071316 492.82598877 153 153 153 0.000000 0.000000 0.000000
-11.29042244 5.92538786 492.87475586 153 153 153 0.000000 0.000000 0.000000
-11.29936218 5.94971800 492.83157349 153 153 153 0.000000 0.000000 0.000000
-11.29819107 5.92440128 492.86514282 153 153 153 0.000000 0.000000 0.000000
-11.29762650 5.93456841 492.83972168 153 153 153 0.000000 0.000000 0.000000
-11.28981876 5.95498371 492.82077026 153 153 153 0.000000 0.000000 0.000000
-11.29055882 5.95367718 492.82733154 153 153 153 0.000000 0.000000 0.000000
-11.29671574 5.93587255 492.85446167 153 153 153 0.000000 0.000000 0.000000
-11.30138111 5.92938995 492.86315918 153 153 153 0.000000 0.000000 0.000000
-11.29967690 5.92488718 492.88357544 153 153 153 0.000000 0.000000 0.000000
-11.29499245 5.95986271 492.82272339 153 153 153 0.000000 0.000000 0.000000
-11.28971481 5.95614576 492.79928589 153 153 153 0.000000 0.000000 0.000000
-11.29474735 5.94536591 492.82186890 153 153 153 0.000000 0.000000 0.000000
-11.29674625 5.92432404 492.87799072 153 153 153 0.000000 0.000000 0.000000
-11.29503918 5.93108940 492.87640381 153 153 153 0.000000 0.000000 0.000000
-11.29861736 5.94770861 492.81893921 153 153 153 0.000000 0.000000 0.000000
-11.28759384 5.93794584 492.85208130 153 153 153 0.000000 0.000000 0.000000
-11.29823208 5.93176460 492.85406494 153 153 153 0.000000 0.000000 0.000000
-11.29421711 5.93022537 492.87255859 153 153 153 0.000000 0.000000 0.000000
-11.29460239 5.92597818 492.87844849 153 153 153 0.000000 0.000000 0.000000
-11.29648399 5.92382193 492.87832642 153 153 153 0.000000 0.000000 0.000000
-11.30066776 5.94105530 492.85101318 153 153 153 0.000000 0.000000 0.000000
-11.29635143 5.93921280 492.85287476 153 153 153 0.000000 0.000000 0.000000
-11.29266357 5.93959570 492.86166382 153 153 153 0.000000 0.000000 0.000000
-11.30076885 5.93766785 492.85910034 153 153 153 0.000000 0.000000 0.000000
-11.29677677 5.92584467 492.87442017 153 153 153 0.000000 0.000000 0.000000
-11.29634094 5.92519331 492.87551880 153 153 153 0.000000 0.000000 0.000000
-11.29561329 5.95490408 492.80950928 153 153 153 0.000000 0.000000 0.000000
-11.29667950 5.94954681 492.83648682 153 153 153 0.000000 0.000000 0.000000
-11.28887081 5.94642687 492.82443237 153 153 153 0.000000 0.000000 0.000000
-11.29512119 5.94053173 492.85867310 153 153 153 0.000000 0.000000 0.000000
-11.29934692 5.93881512 492.87847900 153 153 153 0.000000 0.000000 0.000000
-11.29851341 5.94816637 492.83544922 153 153 153 0.000000 0.000000 0.000000
-11.30013180 5.93849897 492.83908081 153 153 153 0.000000 0.000000 0.000000
-11.29328156 5.95040369 492.81628418 153 153 153 0.000000 0.000000 0.000000
-11.30199337 5.93510580 492.85247803 153 153 153 0.000000 0.000000 0.000000
-11.29687214 5.95669937 492.82247925 153 153 153 0.000000 0.000000 0.000000
-11.29019547 5.95854807 492.79345703 153 153 153 0.000000 0.000000 0.000000
-11.29594612 5.93849897 492.85296631 153 153 153 0.000000 0.000000 0.000000
-11.29285336 5.93127584 492.85760498 153 153 153 0.000000 0.000000 0.000000
-11.29436398 5.96029520 492.80740356 153 153 153 0.000000 0.000000 0.000000
-11.29912090 5.95575380 492.81237793 153 153 153 0.000000 0.000000 0.000000
-11.28915691 5.93894672 492.84704590 153 153 153 0.000000 0.000000 0.000000
-11.30062199 5.93229628 492.85763550 153 153 153 0.000000 0.000000 0.000000
-11.29765415 5.95192337 492.81509399 153 153 153 0.000000 0.000000 0.000000
-11.29580975 5.92720032 492.87994385 153 153 153 0.000000 0.000000 0.000000
-11.29187107 5.93573427 492.85195923 153 153 153 0.000000 0.000000 0.000000
-11.29164410 5.92780256 492.86120605 153 153 153 0.000000 0.000000 0.000000
-11.29794979 5.93044186 492.87698364 153 153 153 0.000000 0.000000 0.000000
-11.29749489 5.92571974 492.86993408 153 153 153 0.000000 0.000000 0.000000
-11.29236603 5.95897770 492.80224609 153 153 153 0.000000 0.000000 0.000000
-11.29546642 5.94214153 492.82888794 153 153 153 0.000000 0.000000 0.000000
-11.29819775 5.94826841 492.83752441 153 153 153 0.000000 0.000000 0.000000
-11.29257011 5.92792177 492.86929321 153 153 153 0.000000 0.000000 0.000000
-11.29899216 5.92770720 492.86972046 153 153 153 0.000000 0.000000 0.000000
-11.30003262 5.93554115 492.84277344 153 153 153 0.000000 0.000000 0.000000
-11.29342651 5.95634270 492.81344604 153 153 153 0.000000 0.000000 0.000000
-11.30284595 5.94224644 492.84967041 153 153 153 0.000000 0.000000 0.000000
-11.29601479 5.92937756 492.88037109 153 153 153 0.000000 0.000000 0.000000
-11.29738903 5.94490147 492.85150146 153 153 153 0.000000 0.000000 0.000000
-11.29298782 5.95203733 492.82284546 153 153 153 0.000000 0.000000 0.000000
-11.29836082 5.92735672 492.87670898 153 153 153 0.000000 0.000000 0.000000
-11.29628754 5.95505285 492.81631470 153 153 153 0.000000 0.000000 0.000000
-11.29462051 5.92796278 492.87982178 153 153 153 0.000000 0.000000 0.000000
-11.29074287 5.93944597 492.84906006 153 153 153 0.000000 0.000000 0.000000
-11.29038334 5.94094801 492.86300659 153 153 153 0.000000 0.000000 0.000000
-11.29934692 5.93419361 492.85717773 153 153 153 0.000000 0.000000 0.000000
-11.29346752 5.93207884 492.87579346 153 153 153 0.000000 0.000000 0.000000
-11.29438019 5.92715263 492.87857056 153 153 153 0.000000 0.000000 0.000000
-11.29493141 5.92764187 492.88024902 153 153 153 0.000000 0.000000 0.000000
-11.29767227 5.94316578 492.85269165 153 153 153 0.000000 0.000000 0.000000
-11.29536533 5.95582724 492.79553223 153 153 153 0.000000 0.000000 0.000000
-11.28903198 5.92984390 492.86541748 153 153 153 0.000000 0.000000 0.000000
-11.30044651 5.93798685 492.85739136 153 153 153 0.000000 0.000000 0.000000
-11.29575253 5.92565012 492.87634277 153 153 153 0.000000 0.000000 0.000000
-11.29311943 5.95674992 492.80703735 153 153 153 0.000000 0.000000 0.000000
-11.29231358 5.93976927 492.85552979 153 153 153 0.000000 0.000000 0.000000
-11.29172897 5.94085598 492.87377930 153 153 153 0.000000 0.000000 0.000000
-11.30011749 5.94916582 492.84020996 153 153 153 0.000000 0.000000 0.000000
-11.29200745 5.94951391 492.82995605 153 153 153 0.000000 0.000000 0.000000
-11.29428291 5.92700005 492.87585449 153 153 153 0.000000 0.000000 0.000000
-11.28958511 5.95593214 492.82199097 153 153 153 0.000000 0.000000 0.000000
-11.30377769 5.93830156 492.85366821 153 153 153 0.000000 0.000000 0.000000
-11.29765034 5.95265865 492.80209351 153 153 153 0.000000 0.000000 0.000000
-11.28962517 5.95880795 492.79629517 153 153 153 0.000000 0.000000 0.000000
-11.29694939 5.94441748 492.85168457 153 153 153 0.000000 0.000000 0.000000
-11.29281521 5.96107292 492.80709839 153 153 153 0.000000 0.000000 0.000000
