//X Y Z R G B Nx Ny Nz
-11.23146057 5.94125366 492.88977051 153 153 153 0.000000 0.000000 0.000000
-11.24660683 5.94612885 492.86398315 153 153 153 0.000000 0.000000 0.000000
-11.22492981 5.94839096 492.91156006 153 153 153 0.000000 0.000000 0.000000
-11.24585915 5.94464684 492.86401367 153 153 153 0.000000 0.000000 0.000000
-11.22045898 5.94965458 492.92742920 153 153 153 0.000000 0.000000 0.000000
-11.22947502 5.95371342 492.91531372 153 153 153 0.000000 0.000000 0.000000
-11.24153519 5.94557953 492.86117554 153 153 153 0.000000 0.000000 0.000000
-11.24772930 5.94538212 492.86892700 153 153 153 0.000000 0.000000 0.000000
-11.24044037 5.94415140 492.87319946 153 153 153 0.000000 0.000000 0.000000
-11.24010372 5.94408083 492.88919067 153 153 153 0.000000 0.000000 0.000000
-11.22620296 5.95259380 492.90875244 153 153 153 0.000000 0.000000 0.000000
-11.24220181 5.94194031 492.84646606 153 153 153 0.000000 0.000000 0.000000
-11.24969673 5.93679810 492.82861328 153 153 153 0.000000 0.000000 0.000000
-11.22820854 5.94455481 492.90487671 153 153 153 0.000000 0.000000 0.000000
-11.22552013 5.94788218 492.92294312 153 153 153 0.000000 0.000000 0.000000
-11.23166084 5.94015026 492.90280151 153 153 153 0.000000 0.000000 0.000000
-11.23901749 5.94399309 492.91467285 153 153 153 0.000000 0.000000 0.000000
-11.25503826 5.94709778 492.83633423 153 153 153 0.000000 0.000000 0.000000
-11.23609161 5.94281244 492.87442017 153 153 153 0.000000 0.000000 0.000000
-11.23729992 5.94578409 492.89553833 153 153 153 0.000000 0.000000 0.000000
-11.23840427 5.94672871 492.89718628 153 153 153 0.000000 0.000000 0.000000
-11.22864819 5.94967031 492.90277100 153 153 153 0.000000 0.000000 0.000000
-11.22323799 5.94852257 492.92355347 153 153 153 0.000000 0.000000 0.000000
-11.25065041 5.94265652 492.82531738 153 153 153 0.000000 0.000000 0.000000
-11.23293972 5.94801760 492.90408325 153 153 153 0.000000 0.000000 0.000000
-11.23888588 5.93924379 492.86993408 153 153 153 0.000000 0.000000 0.000000
-11.23996925 5.93893099 492.87268066 153 153 153 0.000000 0.000000 0.000000
-11.24510288 5.93742466 492.85327148 153 153 153 0.000000 0.000000 0.000000
-11.24600410 5.93992615 492.83099365 153 153 153 0.000000 0.000000 0.000000
-11.23402023 5.93974161 492.89013672 153 153 153 0.000000 0.000000 0.000000
-11.22566700 5.94634581 492.90026855 153 153 153 0.000000 0.000000 0.000000
-11.24495697 5.94286871 492.84991455 153 153 153 0.000000 0.000000 0.000000
-11.24444199 5.94622564 492.87844849 153 153 153 0.000000 0.000000 0.000000
-11.22623348 5.94482660 492.90896606 153 153 153 0.000000 0.000000 0.000000
-11.25016689 5.93704510 492.82070923 153 153 153 0.000000 0.000000 0.000000
-11.24042511 5.93871784 492.88064575 153 153 153 0.000000 0.000000 0.000000
-11.24172974 5.94819880 492.88497925 153 153 153 0.000000 0.000000 0.000000
-11.22615242 5.94953632 492.91397095 153 153 153 0.000000 0.000000 0.000000
-11.23194981 5.94092035 492.89651489 153 153 153 0.000000 0.000000 0.000000
-11.24557686 5.94049215 492.88079834 153 153 153 0.000000 0.000000 0.000000
-11.22342873 5.94865179 492.91143799 153 153 153 0.000000 0.000000 0.000000
-11.22529984 5.94875193 492.91583252 153 153 153 0.000000 0.000000 0.000000
-11.24990177 5.94299030 492.86538696 153 153 153 0.000000 0.000000 0.000000
-11.23611736 5.94852638 492.90481567 153 153 153 0.000000 0.000000 0.000000
-11.22427940 5.94945192 492.92208862 153 153 153 0.000000 0.000000 0.000000
-11.22655678 5.94712114 492.91760254 153 153 153 0.000000 0.000000 0.000000
-11.24295330 5.94715595 492.86007690 153 153 153 0.000000 0.000000 0.000000
-11.24358940 5.94258308 492.87564087 153 153 153 0.000000 0.000000 0.000000
-11.23753738 5.94698524 492.89349365 153 153 153 0.000000 0.000000 0.000000
-11.24012375 5.94497490 492.88385010 153 153 153 0.000000 0.000000 0.000000
-11.22761154 5.94490480 492.91171265 153 153 153 0.000000 0.000000 0.000000
-11.22817516 5.94651699 492.90280151 153 153 153 0.000000 0.000000 0.000000
-11.24205494 5.94572496 492.85629272 153 153 153 0.000000 0.000000 0.000000
-11.24755287 5.94252110 492.82687378 153 153 153 0.000000 0.000000 0.000000
-11.24222374 5.94838953 492.86386108 153 153 153 0.000000 0.000000 0.000000
-11.24346066 5.94040298 492.85314941 153 153 153 0.000000 0.000000 0.000000
-11.22275639 5.94918394 492.91769409 153 153 153 0.000000 0.000000 0.000000
-11.22666550 5.95046520 492.90100098 153 153 153 0.000000 0.000000 0.000000
-11.25210094 5.93704319 492.86810303 153 153 153 0.000000 0.000000 0.000000
-11.24432659 5.93801498 492.82980347 153 153 153 0.000000 0.000000 0.000000
-11.23499012 5.94466257 492.89111328 153 153 153 0.000000 0.000000 0.000000
-11.23399162 5.94713736 492.89486694 153 153 153 0.000000 0.000000 0.000000
-11.23015022 5.94582176 492.88647461 153 153 153 0.000000 0.000000 0.000000
-11.25054073 5.94571161 492.82717896 153 153 153 0.000000 0.000000 0.000000
-11.24096203 5.94505119 492.87384033 153 153 153 0.000000 0.000000 0.000000
-11.23695374 5.94572163 492.88699341 153 153 153 0.000000 0.000000 0.000000
-11.22209358 5.94884443 492.91928101 153 153 153 0.000000 0.000000 0.000000
-11.24847031 5.94553137 492.83374023 153 153 153 0.000000 0.000000 0.000000
-11.23693371 5.94799757 492.90115356 153 153 153 0.000000 0.000000 0.000000
-11.24789238 5.94386768 492.86453247 153 153 153 0.000000 0.000000 0.000000
-11.23901749 5.94412374 492.88256836 153 153 153 0.000000 0.000000 0.000000
-11.22503376 5.95353127 492.91021729 153 153 153 0.000000 0.000000 0.000000
-11.24962902 5.94787502 492.86492920 153 153 153 0.000000 0.000000 0.000000
-11.24164581 5.93962049 492.85287476 153 153 153 0.000000 0.000000 0.000000
-11.24908924 5.94865179 492.82992554 153 153 153 0.000000 0.000000 0.000000
-11.24124622 5.94406033 492.84332275 153 153 153 0.000000 0.000000 0.000000
-11.22707367 5.94944572 492.90908813 153 153 153 0.000000 0.000000 0.000000
-11.24438667 5.94461441 492.88543701 153 153 153 0.000000 0.000000 0.000000
-11.22742271 5.94497108 492.89965820 153 153 153 0.000000 0.000000 0.000000
-11.24950123 5.93560076 492.82809448 153 153 153 0.000000 0.000000 0.000000
-11.23896599 5.94121075 492.88830566 153 153 153 0.000000 0.000000 0.000000
-11.24078369 5.93881273 492.89672852 153 153 153 0.000000 0.000000 0.000000
-11.22581768 5.95059490 492.93823242 153 153 153 0.000000 0.000000 0.000000
-11.24228191 5.94192934 492.86920166 153 153 153 0.000000 0.000000 0.000000
-11.25370502 5.94456816 492.83062744 153 153 153 0.000000 0.000000 0.000000
-11.22324181 5.94849491 492.91250610 153 153 153 0.000000 0.000000 0.000000
-11.22537136 5.95222521 492.90829468 153 153 153 0.000000 0.000000 0.000000
-11.22463131 5.94886971 492.91598511 153 153 153 0.000000 0.000000 0.000000
-11.24659920 5.94634008 492.87881470 153 153 153 0.000000 0.000000 0.000000
-11.25077248 5.94382524 492.87252808 153 153 153 0.000000 0.000000 0.000000
-11.22129726 5.94879770 492.92678833 153 153 153 0.000000 0.000000 0.000000
-11.22882462 5.95061493 492.91381836 153 153 153 0.000000 0.000000 0.000000
-11.24011517 5.94992638 492.87234497 153 153 153 0.000000 0.000000 0.000000
-11.25115204 5.94320059 492.84854126 153 153 153 0.000000 0.000000 0.000000
-11.22484398 5.94949102 492.90954590 153 153 153 0.000000 0.000000 0.000000
-11.24643993 5.94556522 492.85241699 153 153 153 0.000000 0.000000 0.000000
-11.25395298 5.94506502 492.82754517 153 153 153 0.000000 0.000000 0.000000
-11.22510910 5.95136547 492.91055298 153 153 153 0.000000 0.000000 0.000000
-11.22787666 5.94562483 492.91516113 153 153 153 0.000000 0.000000 0.000000
-11.25076771 5.93913841 492.85580444 153 153 153 0.000000 0.000000 0.000000
-11.24486732 5.93654823 492.84393311 153 153 153 0.000000 0.000000 0.000000
-11.22907543 5.94486284 492.88250732 153 153 153 0.000000 0.000000 0.000000
-11.23641205 5.94779730 492.89190674 153 153 153 0.000000 0.000000 0.000000
-11.25084591 5.94723177 492.82757568 153 153 153 0.000000 0.000000 0.000000
-11.23352623 5.94866228 492.90225220 153 153 153 0.000000 0.000000 0.000000
-11.24231529 5.94550753 492.89398193 153 153 153 0.000000 0.000000 0.000000
-11.22562599 5.94971180 492.90145874 153 153 153 0.000000 0.000000 0.000000
-11.22995663 5.95192575 492.92059326 153 153 153 0.000000 0.000000 0.000000
-11.25407219 5.94034767 492.83395386 153 153 153 0.000000 0.000000 0.000000
-11.23541260 5.94825697 492.90771484 153 153 153 0.000000 0.000000 0.000000
-11.23605633 5.94777060 492.91629028 153 153 153 0.000000 0.000000 0.000000
-11.23939705 5.94971180 492.89901733 153 153 153 0.000000 0.000000 0.000000
-11.24729919 5.93513298 492.84786987 153 153 153 0.000000 0.000000 0.000000
-11.25151062 5.94500923 492.87332153 153 153 153 0.000000 0.000000 0.000000
-11.24183464 5.94122791 492.85958862 153 153 153 0.000000 0.000000 0.000000
-11.25122929 5.94764471 492.83477783 153 153 153 0.000000 0.000000 0.000000
-11.22713661 5.95058918 492.90350342 153 153 153 0.000000 0.000000 0.000000
-11.22714329 5.95123816 492.91009521 153 153 153 0.000000 0.000000 0.000000
-11.24179173 5.95135355 492.88442993 153 153 153 0.000000 0.000000 0.000000
-11.23300743 5.94713354 492.89947510 153 153 153 0.000000 0.000000 0.000000
-11.23841572 5.94899225 492.89346313 153 153 153 0.000000 0.000000 0.000000
-11.24038792 5.94396400 492.88165283 153 153 153 0.000000 0.000000 0.000000
-11.23749352 5.94197226 492.89373779 153 153 153 0.000000 0.000000 0.000000
-11.23784733 5.94942856 492.89523315 153 153 153 0.000000 0.000000 0.000000
-11.23366356 5.94192457 492.89230347 153 153 153 0.000000 0.000000 0.000000
-11.24588490 5.94315100 492.86624146 153 153 153 0.000000 0.000000 0.000000
-11.25098610 5.94217443 492.82766724 153 153 153 0.000000 0.000000 0.000000
-11.21934414 5.94459248 492.91571045 153 153 153 0.000000 0.000000 0.000000
-11.22426510 5.94850397 492.91006470 153 153 153 0.000000 0.000000 0.000000
-11.22620487 5.94801378 492.91079712 153 153 153 0.000000 0.000000 0.000000
-11.22181797 5.94493008 492.91964722 153 153 153 0.000000 0.000000 0.000000
-11.22839737 5.95317745 492.91275024 153 153 153 0.000000 0.000000 0.000000
-11.24391365 5.94637871 492.86282349 153 153 153 0.000000 0.000000 0.000000
-11.24240494 5.94791651 492.87014771 153 153 153 0.000000 0.000000 0.000000
-11.23630619 5.94188833 492.87994385 153 153 153 0.000000 0.000000 0.000000
-11.23883724 5.94977427 492.88848877 153 153 153 0.000000 0.000000 0.000000
-11.22786140 5.95310211 492.91204834 153 153 153 0.000000 0.000000 0.000000
-11.25266552 5.94539261 492.84088135 153 153 153 0.000000 0.000000 0.000000
-11.24603939 5.94917727 492.85565186 153 153 153 0.000000 0.000000 0.000000
-11.23020840 5.94866705 492.90982056 153 153 153 0.000000 0.000000 0.000000
-11.23141098 5.94887352 492.92208862 153 153 153 0.000000 0.000000 0.000000
-11.25051880 5.93883944 492.81460571 153 153 153 0.000000 0.000000 0.000000
-11.24939823 5.93886709 492.83514404 153 153 153 0.000000 0.000000 0.000000
-11.23121071 5.94622564 492.87817383 153 153 153 0.000000 0.000000 0.000000
-11.25709820 5.94541073 492.82241821 153 153 153 0.000000 0.000000 0.000000
-11.23651505 5.94684076 492.89706421 153 153 153 0.000000 0.000000 0.000000
-11.24212837 5.94633627 492.89056396 153 153 153 0.000000 0.000000 0.000000
-11.25510406 5.94519138 492.82534790 153 153 153 0.000000 0.000000 0.000000
-11.24442863 5.94890785 492.88134766 153 153 153 0.000000 0.000000 0.000000
-11.24047375 5.94670916 492.90084839 153 153 153 0.000000 0.000000 0.000000
-11.22736454 5.95341730 492.91009521 153 153 153 0.000000 0.000000 0.000000
-11.24092865 5.95099592 492.90341187 153 153 153 0.000000 0.000000 0.000000
-11.24746323 5.94862938 492.87228394 153 153 153 0.000000 0.000000 0.000000
-11.24181271 5.93965912 492.86276245 153 153 153 0.000000 0.000000 0.000000
-11.24600601 5.94304466 492.82717896 153 153 153 0.000000 0.000000 0.000000
-11.24173832 5.94246531 492.84432983 153 153 153 0.000000 0.000000 0.000000
-11.22720337 5.95001411 492.91232300 153 153 153 0.000000 0.000000 0.000000
-11.24180698 5.94268513 492.84799194 153 153 153 0.000000 0.000000 0.000000
-11.22667313 5.95345211 492.91055298 153 153 153 0.000000 0.000000 0.000000
-11.23874092 5.94118214 492.88766479 153 153 153 0.000000 0.000000 0.000000
-11.25039959 5.93717766 492.82458496 153 153 153 0.000000 0.000000 0.000000
-11.23878288 5.94870615 492.89410400 153 153 153 0.000000 0.000000 0.000000
-11.23718929 5.94250298 492.88143921 153 153 153 0.000000 0.000000 0.000000
-11.24370289 5.94678068 492.89270020 153 153 153 0.000000 0.000000 0.000000
-11.22136688 5.95116949 492.89093018 153 153 153 0.000000 0.000000 0.000000
-11.24586391 5.93892384 492.85452271 153 153 153 0.000000 0.000000 0.000000
-11.25444984 5.94523716 492.82183838 153 153 153 0.000000 0.000000 0.000000
-11.22670364 5.94785404 492.91784668 153 153 153 0.000000 0.000000 0.000000
-11.24418736 5.94024515 492.87310791 153 153 153 0.000000 0.000000 0.000000
-11.22100925 5.94955063 492.92254639 153 153 153 0.000000 0.000000 0.000000
-11.25065231 5.94869995 492.85739136 153 153 153 0.000000 0.000000 0.000000
-11.24699879 5.94075584 492.86758423 153 153 153 0.000000 0.000000 0.000000
-11.24282646 5.93910027 492.88037109 153 153 153 0.000000 0.000000 0.000000
-11.24003315 5.94365644 492.88958740 153 153 153 0.000000 0.000000 0.000000
-11.22553921 5.95379257 492.91229248 153 153 153 0.000000 0.000000 0.000000
-11.24665737 5.94698858 492.85467529 153 153 153 0.000000 0.000000 0.000000
-11.24725628 5.94396639 492.86071777 153 153 153 0.000000 0.000000 0.000000
-11.22638702 5.95201206 492.90838623 153 153 153 0.000000 0.000000 0.000000
-11.24709797 5.93884182 492.84487915 153 153 153 0.000000 0.000000 0.000000
-11.23360443 5.94589567 492.89746094 153 153 153 0.000000 0.000000 0.000000
-11.25313473 5.94399691 492.83227539 153 153 153 0.000000 0.000000 0.000000
-11.22703743 5.94526482 492.90100098 153 153 153 0.000000 0.000000 0.000000
-11.23516178 5.94458580 492.88345337 153 153 153 0.000000 0.000000 0.000000
-11.23605919 5.94217777 492.89950562 153 153 153 0.000000 0.000000 0.000000
-11.22646046 5.95387840 492.91265869 153 153 153 0.000000 0.000000 0.000000
-11.22669315 5.94649315 492.91677856 153 153 153 0.000000 0.000000 0.000000
-11.25503445 5.94542646 492.82788086 153 153 153 0.000000 0.000000 0.000000
-11.24690723 5.94433022 492.86758423 153 153 153 0.000000 0.000000 0.000000
-11.24467468 5.94262123 492.88409424 153 153 153 0.000000 0.000000 0.000000
-11.23158455 5.93937302 492.91302490 153 153 153 0.000000 0.000000 0.000000
-11.23135948 5.95353031 492.90911865 153 153 153 0.000000 0.000000 0.000000
-11.23872662 5.94787693 492.89282227 153 153 153 0.000000 0.000000 0.000000
-11.25088882 5.94847488 492.86773682 153 153 153 0.000000 0.000000 0.000000
-11.24344635 5.93937349 492.86410522 153 153 153 0.000000 0.000000 0.000000
-11.24349976 5.94395781 492.83123779 153 153 153 0.000000 0.000000 0.000000
-11.22592831 5.94574499 492.89019775 153 153 153 0.000000 0.000000 0.000000
-11.22498035 5.94518614 492.91842651 153 153 153 0.000000 0.000000 0.000000
-11.24367237 5.94759464 492.89144897 153 153 153 0.000000 0.000000 0.000000
-11.24035072 5.94783449 492.88439941 153 153 153 0.000000 0.000000 0.000000
-11.25368500 5.94098568 492.83181763 153 153 153 0.000000 0.000000 0.000000
-11.23777580 5.94787979 492.89352417 153 153 153 0.000000 0.000000 0.000000
-11.22198677 5.94677734 492.91680908 153 153 153 0.000000 0.000000 0.000000
-11.22156525 5.94636774 492.92758179 153 153 153 0.000000 0.000000 0.000000
-11.24325848 5.94172716 492.87188721 153 153 153 0.000000 0.000000 0.000000
-11.22021580 5.94614887 492.90661621 153 153 153 0.000000 0.000000 0.000000
-11.22264576 5.94951725 492.91226196 153 153 153 0.000000 0.000000 0.000000
-11.22638988 5.95045567 492.90325928 153 153 153 0.000000 0.000000 0.000000
-11.22713089 5.94722366 492.91278076 153 153 153 0.000000 0.000000 0.000000
-11.24731636 5.94718409 492.86508179 153 153 153 0.000000 0.000000 0.000000
-11.21957397 5.94961739 492.92166138 153 153 153 0.000000 0.000000 0.000000
-11.22873974 5.94921160 492.90823364 153 153 153 0.000000 0.000000 0.000000
-11.24360275 5.94598532 492.85696411 153 153 153 0.000000 0.000000 0.000000
-11.24184036 5.94546080 492.86859131 153 153 153 0.000000 0.000000 0.000000
-11.23869324 5.94087362 492.87390137 153 153 153 0.000000 0.000000 0.000000
-11.23932552 5.94807053 492.88461304 153 153 153 0.000000 0.000000 0.000000
-11.24006462 5.94090414 492.88598633 153 153 153 0.000000 0.000000 0.000000
-11.22617245 5.95311117 492.90963745 153 153 153 0.000000 0.000000 0.000000
-11.22743130 5.95045471 492.90182495 153 153 153 0.000000 0.000000 0.000000
-11.24662685 5.94487572 492.84390259 153 153 153 0.000000 0.000000 0.000000
-11.24256039 5.93875217 492.82861328 153 153 153 0.000000 0.000000 0.000000
-11.24208450 5.94760990 492.86172485 153 153 153 0.000000 0.000000 0.000000
-11.24108124 5.93811703 492.86218262 153 153 153 0.000000 0.000000 0.000000
-11.22680473 5.94761705 492.89749146 153 153 153 0.000000 0.000000 0.000000
-11.22898579 5.94509459 492.91806030 153 153 153 0.000000 0.000000 0.000000
-11.24553490 5.94048309 492.86013794 153 153 153 0.000000 0.000000 0.000000
-11.23251247 5.94499207 492.88787842 153 153 153 0.000000 0.000000 0.000000
-11.23567486 5.94733191 492.90274048 153 153 153 0.000000 0.000000 0.000000
-11.22853851 5.94749403 492.88909912 153 153 153 0.000000 0.000000 0.000000
-11.22883701 5.94587183 492.90420532 153 153 153 0.000000 0.000000 0.000000
-11.25003433 5.94322157 492.83334351 153 153 153 0.000000 0.000000 0.000000
-11.23482323 5.94434452 492.88809204 153 153 153 0.000000 0.000000 0.000000
-11.23547554 5.94644690 492.89404297 153 153 153 0.000000 0.000000 0.000000
-11.23354530 5.94373703 492.88104248 153 153 153 0.000000 0.000000 0.000000
-11.23599815 5.94641638 492.89471436 153 153 153 0.000000 0.000000 0.000000
-11.22511673 5.94652033 492.90695190 153 153 153 0.000000 0.000000 0.000000
-11.22055721 5.94643021 492.92062378 153 153 153 0.000000 0.000000 0.000000
-11.25175667 5.93968058 492.83114624 153 153 153 0.000000 0.000000 0.000000
-11.23526478 5.94416475 492.90893555 153 153 153 0.000000 0.000000 0.000000
-11.23896313 5.94664907 492.86737061 153 153 153 0.000000 0.000000 0.000000
-11.24273777 5.94913340 492.87969971 153 153 153 0.000000 0.000000 0.000000
-11.23310757 5.95253754 492.89907837 153 153 153 0.000000 0.000000 0.000000
-11.23860741 5.94420671 492.89468384 153 153 153 0.000000 0.000000 0.000000
-11.22552681 5.95331097 492.91104126 153 153 153 0.000000 0.000000 0.000000
-11.22563457 5.94578743 492.91476440 153 153 153 0.000000 0.000000 0.000000
-11.24797630 5.94616652 492.86840820 153 153 153 0.000000 0.000000 0.000000
-11.24352074 5.94157362 492.85858154 153 153 153 0.000000 0.000000 0.000000
-11.24705791 5.94765759 492.82974243 153 153 153 0.000000 0.000000 0.000000
-11.22845173 5.94444609 492.89218140 153 153 153 0.000000 0.000000 0.000000
-11.22734070 5.95007420 492.91064453 153 153 153 0.000000 0.000000 0.000000
-11.24484158 5.94363976 492.84140015 153 153 153 0.000000 0.000000 0.000000
-11.23418236 5.94361448 492.89407349 153 153 153 0.000000 0.000000 0.000000
-11.23571396 5.94851828 492.90100098 153 153 153 0.000000 0.000000 0.000000
-11.24862003 5.94014740 492.83255005 153 153 153 0.000000 0.000000 0.000000
-11.23133659 5.94353962 492.90036011 153 153 153 0.000000 0.000000 0.000000
-11.24133968 5.94780302 492.88418579 153 153 153 0.000000 0.000000 0.000000
-11.23366451 5.94917059 492.89581299 153 153 153 0.000000 0.000000 0.000000
-11.22866631 5.94174099 492.92599487 153 153 153 0.000000 0.000000 0.000000
-11.22764778 5.94589376 492.90008545 153 153 153 0.000000 0.000000 0.000000
-11.24087048 5.93769169 492.86300659 153 153 153 0.000000 0.000000 0.000000
-11.22323895 5.94706154 492.90945435 153 153 153 0.000000 0.000000 0.000000
-11.22717285 5.94653702 492.91415405 153 153 153 0.000000 0.000000 0.000000
-11.22867203 5.95308065 492.91485596 153 153 153 0.000000 0.000000 0.000000
-11.24260044 5.94578743 492.87533569 153 153 153 0.000000 0.000000 0.000000
-11.24098778 5.94454908 492.87466431 153 153 153 0.000000 0.000000 0.000000
-11.24084854 5.94604445 492.88305664 153 153 153 0.000000 0.000000 0.000000
-11.22547626 5.95356417 492.91159058 153 153 153 0.000000 0.000000 0.000000
-11.24620438 5.94862127 492.84194946 153 153 153 0.000000 0.000000 0.000000
-11.25095463 5.94514704 492.83972168 153 153 153 0.000000 0.000000 0.000000
-11.25193119 5.93951654 492.82775879 153 153 153 0.000000 0.000000 0.000000
-11.24641228 5.93764877 492.85357666 153 153 153 0.000000 0.000000 0.000000
-11.22926044 5.94790649 492.90792847 153 153 153 0.000000 0.000000 0.000000
-11.24732208 5.93618488 492.83831787 153 153 153 0.000000 0.000000 0.000000
-11.24877071 5.94365978 492.82006836 153 153 153 0.000000 0.000000 0.000000
-11.24977589 5.93862009 492.83569336 153 153 153 0.000000 0.000000 0.000000
-11.23468876 5.93926907 492.90588379 153 153 153 0.000000 0.000000 0.000000
-11.23500156 5.94299364 492.88848877 153 153 153 0.000000 0.000000 0.000000
-11.23398495 5.94774389 492.90011597 153 153 153 0.000000 0.000000 0.000000
-11.25280952 5.94436693 492.82617188 153 153 153 0.000000 0.000000 0.000000
-11.23883915 5.94765043 492.89392090 153 153 153 0.000000 0.000000 0.000000
-11.23434734 5.94221592 492.88690186 153 153 153 0.000000 0.000000 0.000000
-11.23228073 5.94361544 492.90628052 153 153 153 0.000000 0.000000 0.000000
-11.25271797 5.93761873 492.82504272 153 153 153 0.000000 0.000000 0.000000
-11.23981667 5.94622707 492.90496826 153 153 153 0.000000 0.000000 0.000000
-11.24817657 5.94248581 492.86837769 153 153 153 0.000000 0.000000 0.000000
-11.24042702 5.94493532 492.90243530 153 153 153 0.000000 0.000000 0.000000
-11.22104454 5.95109987 492.92050171 153 153 153 0.000000 0.000000 0.000000
-11.25499535 5.94346809 492.83795166 153 153 153 0.000000 0.000000 0.000000
-11.22496510 5.94875765 492.91494751 153 153 153 0.000000 0.000000 0.000000
-11.24870205 5.95021391 492.85870361 153 153 153 0.000000 0.000000 0.000000
-11.24048996 5.93949032 492.86138916 153 153 153 0.000000 0.000000 0.000000
-11.24621010 5.94662523 492.83065796 153 153 153 0.000000 0.000000 0.000000
-11.22295380 5.95301342 492.90353394 153 153 153 0.000000 0.000000 0.000000
-11.22855854 5.94571352 492.88745117 153 153 153 0.000000 0.000000 0.000000
-11.22891808 5.94951630 492.90631104 153 153 153 0.000000 0.000000 0.000000
-11.25070000 5.93402338 492.84237671 153 153 153 0.000000 0.000000 0.000000
-11.24388218 5.94399452 492.87905884 153 153 153 0.000000 0.000000 0.000000
-11.25351238 5.93990993 492.82180786 153 153 153 0.000000 0.000000 0.000000
-11.23642635 5.94565582 492.89697266 153 153 153 0.000000 0.000000 0.000000
-11.23481655 5.95031309 492.89532471 153 153 153 0.000000 0.000000 0.000000
-11.23465347 5.94560623 492.89956665 153 153 153 0.000000 0.000000 0.000000
-11.22466564 5.94961309 492.92062378 153 153 153 0.000000 0.000000 0.000000
-11.24233723 5.94916248 492.86196899 153 153 153 0.000000 0.000000 0.000000
-11.23149681 5.94187021 492.89086914 153 153 153 0.000000 0.000000 0.000000
-11.23829269 5.94077587 492.85888672 153 153 153 0.000000 0.000000 0.000000
-11.22363567 5.94842100 492.91168213 153 153 153 0.000000 0.000000 0.000000
-11.22834587 5.94696426 492.90463257 153 153 153 0.000000 0.000000 0.000000
-11.22199345 5.94792128 492.91259766 153 153 153 0.000000 0.000000 0.000000
-11.23971081 5.94107723 492.87533569 153 153 153 0.000000 0.000000 0.000000
-11.22182369 5.95124006 492.92306519 153 153 153 0.000000 0.000000 0.000000
-11.24812412 5.94545889 492.86700439 153 153 153 0.000000 0.000000 0.000000
-11.24062824 5.94835567 492.86978149 153 153 153 0.000000 0.000000 0.000000
-11.24282074 5.94364405 492.87365723 153 153 153 0.000000 0.000000 0.000000
-11.24314976 5.94569635 492.88601685 153 153 153 0.000000 0.000000 0.000000
-11.24778843 5.94668341 492.84225464 153 153 153 0.000000 0.000000 0.000000
-11.22665787 5.95417023 492.91482544 153 153 153 0.000000 0.000000 0.000000
-11.22834110 5.94684649 492.90435791 153 153 153 0.000000 0.000000 0.000000
-11.24548435 5.94781113 492.84658813 153 153 153 0.000000 0.000000 0.000000
-11.24607086 5.94782400 492.84115601 153 153 153 0.000000 0.000000 0.000000
-11.25318050 5.94308424 492.82504272 153 153 153 0.000000 0.000000 0.000000
-11.22790146 5.94755173 492.90377808 153 153 153 0.000000 0.000000 0.000000
-11.22643185 5.94612932 492.90667725 153 153 153 0.000000 0.000000 0.000000
-11.24864388 5.94071293 492.84774780 153 153 153 0.000000 0.000000 0.000000
-11.22965240 5.94629669 492.89126587 153 153 153 0.000000 0.000000 0.000000
-11.22214127 5.94770432 492.91748047 153 153 153 0.000000 0.000000 0.000000
-11.25449085 5.94743919 492.84039307 153 153 153 0.000000 0.000000 0.000000
-11.24164295 5.94556570 492.88012695 153 153 153 0.000000 0.000000 0.000000
-11.23857307 5.94592047 492.89340210 153 153 153 0.000000 0.000000 0.000000
-11.22737503 5.94500971 492.90872192 153 153 153 0.000000 0.000000 0.000000
-11.22498608 5.94734907 492.91912842 153 153 153 0.000000 0.000000 0.000000
-11.25171947 5.94189453 492.81918335 153 153 153 0.000000 0.000000 0.000000
-11.24080563 5.94942093 492.90908813 153 153 153 0.000000 0.000000 0.000000
-11.24957561 5.94126034 492.86172485 153 153 153 0.000000 0.000000 0.000000
-11.23549843 5.94879580 492.90267944 153 153 153 0.000000 0.000000 0.000000
-11.23073196 5.95330143 492.91177368 153 153 153 0.000000 0.000000 0.000000
-11.25562668 5.94161558 492.83926392 153 153 153 0.000000 0.000000 0.000000
-11.24435806 5.94142389 492.87728882 153 153 153 0.000000 0.000000 0.000000
-11.24077415 5.93868399 492.85626221 153 153 153 0.000000 0.000000 0.000000
-11.24701500 5.94953108 492.83691406 153 153 153 0.000000 0.000000 0.000000
-11.23087978 5.94440460 492.91619873 153 153 153 0.000000 0.000000 0.000000
-11.24927616 5.93710709 492.85104370 153 153 153 0.000000 0.000000 0.000000
-11.24069977 5.94151878 492.89526367 153 153 153 0.000000 0.000000 0.000000
-11.24303627 5.94359541 492.87579346 153 153 153 0.000000 0.000000 0.000000
-11.25233650 5.93855333 492.81909180 153 153 153 0.000000 0.000000 0.000000
-11.23647785 5.94566917 492.89880371 153 153 153 0.000000 0.000000 0.000000
-11.23603535 5.94311810 492.89385986 153 153 153 0.000000 0.000000 0.000000
-11.24080086 5.94470358 492.87988281 153 153 153 0.000000 0.000000 0.000000
-11.24160957 5.94911194 492.89251709 153 153 153 0.000000 0.000000 0.000000
-11.22633553 5.94647360 492.90866089 153 153 153 0.000000 0.000000 0.000000
-11.23865032 5.94495392 492.86196899 153 153 153 0.000000 0.000000 0.000000
-11.24027252 5.94367981 492.87432861 153 153 153 0.000000 0.000000 0.000000
-11.24583149 5.94787979 492.87835693 153 153 153 0.000000 0.000000 0.000000
-11.23159218 5.93981981 492.90811157 153 153 153 0.000000 0.000000 0.000000
-11.12108707 6.12430429 492.24288940 153 153 153 0.000000 0.000000 0.000000
-11.24227047 5.94333696 492.87564087 153 153 153 0.000000 0.000000 0.000000
-11.22700119 5.95241070 492.90975952 153 153 153 0.000000 0.000000 0.000000
-11.24501514 5.94680023 492.85971069 153 153 153 0.000000 0.000000 0.000000
-11.24339581 5.94972992 492.87438965 153 153 153 0.000000 0.000000 0.000000
-11.24382305 5.94021225 492.87594604 153 153 153 0.000000 0.000000 0.000000
-11.24039459 5.94790459 492.88195801 153 153 153 0.000000 0.000000 0.000000
-11.22670841 5.94558096 492.91030884 153 153 153 0.000000 0.000000 0.000000
-11.23618507 5.94474602 492.86132813 153 153 153 0.000000 0.000000 0.000000
-11.22897720 5.94274282 492.90905762 153 153 153 0.000000 0.000000 0.000000
-11.24401665 5.94562435 492.85467529 153 153 153 0.000000 0.000000 0.000000
-11.25270844 5.94458437 492.85110474 153 153 153 0.000000 0.000000 0.000000
-11.25232124 5.93837547 492.82507324 153 153 153 0.000000 0.000000 0.000000
-11.22817516 5.94819927 492.89901733 153 153 153 0.000000 0.000000 0.000000
-11.22634697 5.94531965 492.91390991 153 153 153 0.000000 0.000000 0.000000
-11.25035954 5.93792439 492.84350586 153 153 153 0.000000 0.000000 0.000000
-11.24747753 5.93881655 492.82131958 153 153 153 0.000000 0.000000 0.000000
-11.22919846 5.94608736 492.88186646 153 153 153 0.000000 0.000000 0.000000
-11.23596764 5.94290304 492.89642334 153 153 153 0.000000 0.000000 0.000000
-11.25436211 5.94450665 492.82165527 153 153 153 0.000000 0.000000 0.000000
-11.23510551 5.94901371 492.89776611 153 153 153 0.000000 0.000000 0.000000
-11.22649765 5.94734383 492.91363525 153 153 153 0.000000 0.000000 0.000000
-11.22070122 5.94566679 492.91915894 153 153 153 0.000000 0.000000 0.000000
-11.25348663 5.94383478 492.82443237 153 153 153 0.000000 0.000000 0.000000
-11.24741554 5.94980097 492.86804199 153 153 153 0.000000 0.000000 0.000000
-11.24530792 5.94630289 492.87863159 153 153 153 0.000000 0.000000 0.000000
-11.22483158 5.95302153 492.91055298 153 153 153 0.000000 0.000000 0.000000
-11.24714851 5.94710350 492.87524414 153 153 153 0.000000 0.000000 0.000000
-11.24416542 5.93662691 492.86184692 153 153 153 0.000000 0.000000 0.000000
-11.22196674 5.94686651 492.90209961 153 153 153 0.000000 0.000000 0.000000
-11.23100567 5.94098616 492.89413452 153 153 153 0.000000 0.000000 0.000000
-11.22728252 5.94909620 492.90890503 153 153 153 0.000000 0.000000 0.000000
-11.24396896 5.93505621 492.85699463 153 153 153 0.000000 0.000000 0.000000
-11.22575760 5.95378637 492.91296387 153 153 153 0.000000 0.000000 0.000000
-11.24139977 5.94936657 492.88934326 153 153 153 0.000000 0.000000 0.000000
-11.24325657 5.94414663 492.88290405 153 153 153 0.000000 0.000000 0.000000
-11.25262737 5.93707180 492.82241821 153 153 153 0.000000 0.000000 0.000000
-11.23749924 5.94723892 492.89062500 153 153 153 0.000000 0.000000 0.000000
-11.23624611 5.95115042 492.89154053 153 153 153 0.000000 0.000000 0.000000
-11.23895550 5.94371319 492.88278198 153 153 153 0.000000 0.000000 0.000000
-11.24160480 5.94196987 492.88946533 153 153 153 0.000000 0.000000 0.000000
-11.24372864 5.93911028 492.87164307 153 153 153 0.000000 0.000000 0.000000
-11.24140930 5.94791174 492.87194824 153 153 153 0.000000 0.000000 0.000000
-11.21964741 5.94659138 492.91305542 153 153 153 0.000000 0.000000 0.000000
-11.24217224 5.94692707 492.86505127 153 153 153 0.000000 0.000000 0.000000
-11.22081184 5.94833803 492.92199707 153 153 153 0.000000 0.000000 0.000000
-11.23358631 5.95189571 492.91284180 153 153 153 0.000000 0.000000 0.000000
-11.24692249 5.95041656 492.85763550 153 153 153 0.000000 0.000000 0.000000
-11.24231911 5.94753361 492.86798096 153 153 153 0.000000 0.000000 0.000000
-11.23649311 5.94217157 492.87615967 153 153 153 0.000000 0.000000 0.000000
-11.24104881 5.94697523 492.88571167 153 153 153 0.000000 0.000000 0.000000
-11.22632122 5.94813061 492.90823364 153 153 153 0.000000 0.000000 0.000000
-11.24602127 5.95071936 492.84567261 153 153 153 0.000000 0.000000 0.000000
-11.25184536 5.94471407 492.83758545 153 153 153 0.000000 0.000000 0.000000
-11.24890232 5.94171858 492.83367920 153 153 153 0.000000 0.000000 0.000000
-11.24357033 5.93864250 492.85394287 153 153 153 0.000000 0.000000 0.000000
-11.22660637 5.94966507 492.90295410 153 153 153 0.000000 0.000000 0.000000
-11.22078419 5.95028210 492.92129517 153 153 153 0.000000 0.000000 0.000000
-11.24493408 5.94139481 492.82089233 153 153 153 0.000000 0.000000 0.000000
-11.23220921 5.94578648 492.88107300 153 153 153 0.000000 0.000000 0.000000
-11.23519611 5.94369650 492.89981079 153 153 153 0.000000 0.000000 0.000000
-11.25021172 5.94465876 492.81808472 153 153 153 0.000000 0.000000 0.000000
-11.24110031 5.94197130 492.87582397 153 153 153 0.000000 0.000000 0.000000
-11.23529720 5.95172453 492.88784790 153 153 153 0.000000 0.000000 0.000000
-11.23849583 5.94178629 492.87722778 153 153 153 0.000000 0.000000 0.000000
-11.24222469 5.94675779 492.89260864 153 153 153 0.000000 0.000000 0.000000
-11.25470734 5.94723940 492.82034302 153 153 153 0.000000 0.000000 0.000000
-11.23514843 5.94966984 492.91122437 153 153 153 0.000000 0.000000 0.000000
-11.23130226 5.94623709 492.91464233 153 153 153 0.000000 0.000000 0.000000
-11.22580814 5.95433855 492.91351318 153 153 153 0.000000 0.000000 0.000000
-11.24732780 5.94717169 492.87713623 153 153 153 0.000000 0.000000 0.000000
-11.24718189 5.93993855 492.85876465 153 153 153 0.000000 0.000000 0.000000
-11.24488258 5.94123697 492.84335327 153 153 153 0.000000 0.000000 0.000000
-11.24645901 5.93975163 492.83602905 153 153 153 0.000000 0.000000 0.000000
-11.23589706 5.94230604 492.88073730 153 153 153 0.000000 0.000000 0.000000
-11.24391079 5.94354868 492.88619995 153 153 153 0.000000 0.000000 0.000000
-11.25094223 5.93725300 492.82357788 153 153 153 0.000000 0.000000 0.000000
-11.24364376 5.94925261 492.89294434 153 153 153 0.000000 0.000000 0.000000
-11.24299812 5.94216394 492.88604736 153 153 153 0.000000 0.000000 0.000000
-11.24140930 5.94096804 492.88955688 153 153 153 0.000000 0.000000 0.000000
-11.22382545 5.94603491 492.91149902 153 153 153 0.000000 0.000000 0.000000
-11.22654438 5.94899797 492.91940308 153 153 153 0.000000 0.000000 0.000000
-11.22517014 5.95070267 492.93319702 153 153 153 0.000000 0.000000 0.000000
-11.23344040 5.94639158 492.88461304 153 153 153 0.000000 0.000000 0.000000
-11.24269581 5.93894196 492.86300659 153 153 153 0.000000 0.000000 0.000000
-11.24039364 5.94764853 492.87960815 153 153 153 0.000000 0.000000 0.000000
-11.23158169 5.94205189 492.88619995 153 153 153 0.000000 0.000000 0.000000
-11.22536659 5.95031214 492.90527344 153 153 153 0.000000 0.000000 0.000000
-11.22605038 5.94732618 492.91397095 153 153 153 0.000000 0.000000 0.000000
-11.22385120 5.94795179 492.91711426 153 153 153 0.000000 0.000000 0.000000
-11.24411869 5.94866562 492.85583496 153 153 153 0.000000 0.000000 0.000000
-11.23996544 5.94592428 492.87698364 153 153 153 0.000000 0.000000 0.000000
-11.24059868 5.94310951 492.86737061 153 153 153 0.000000 0.000000 0.000000
-11.23155689 5.94171810 492.89660645 153 153 153 0.000000 0.000000 0.000000
-11.22203732 5.94840193 492.91305542 153 153 153 0.000000 0.000000 0.000000
-11.24774933 5.94769812 492.86206055 153 153 153 0.000000 0.000000 0.000000
-11.24205112 5.94519472 492.85467529 153 153 153 0.000000 0.000000 0.000000
-11.25192070 5.94037914 492.83084106 153 153 153 0.000000 0.000000 0.000000
-11.25117588 5.93975830 492.81347656 153 153 153 0.000000 0.000000 0.000000
-11.22563362 5.94672441 492.90078735 153 153 153 0.000000 0.000000 0.000000
-11.24990177 5.93490219 492.84362793 153 153 153 0.000000 0.000000 0.000000
-11.23425865 5.94150400 492.88992310 153 153 153 0.000000 0.000000 0.000000
-11.23482990 5.94483137 492.89724731 153 153 153 0.000000 0.000000 0.000000
-11.23167229 5.94869709 492.88082886 153 153 153 0.000000 0.000000 0.000000
-11.25665760 5.94331741 492.82510376 153 153 153 0.000000 0.000000 0.000000
-11.23505592 5.94947290 492.89276123 153 153 153 0.000000 0.000000 0.000000
-11.23803902 5.94427490 492.87979126 153 153 153 0.000000 0.000000 0.000000
-11.24145889 5.94669628 492.89154053 153 153 153 0.000000 0.000000 0.000000
-11.22128963 5.94763851 492.92474365 153 153 153 0.000000 0.000000 0.000000
-11.25422668 5.94489241 492.82168579 153 153 153 0.000000 0.000000 0.000000
-11.24413586 5.94409609 492.88385010 153 153 153 0.000000 0.000000 0.000000
-11.23546791 5.94676638 492.90301514 153 153 153 0.000000 0.000000 0.000000
-11.24942303 5.94588614 492.86825562 153 153 153 0.000000 0.000000 0.000000
-11.24301720 5.94797564 492.85806274 153 153 153 0.000000 0.000000 0.000000
-11.22695827 5.94327164 492.90115356 153 153 153 0.000000 0.000000 0.000000
-11.23295212 5.94952583 492.90713501 153 153 153 0.000000 0.000000 0.000000
-11.24445820 5.93668509 492.85311890 153 153 153 0.000000 0.000000 0.000000
-11.22731876 5.95260572 492.91632080 153 153 153 0.000000 0.000000 0.000000
-11.24186611 5.95068979 492.88656616 153 153 153 0.000000 0.000000 0.000000
-11.24177265 5.94674110 492.88690186 153 153 153 0.000000 0.000000 0.000000
-11.25275993 5.93709135 492.82690430 153 153 153 0.000000 0.000000 0.000000
-11.23693562 5.94969368 492.89889526 153 153 153 0.000000 0.000000 0.000000
-11.24208069 5.94628859 492.89160156 153 153 153 0.000000 0.000000 0.000000
-11.23359013 5.94547844 492.89956665 153 153 153 0.000000 0.000000 0.000000
-11.22027588 5.95100641 492.92095947 153 153 153 0.000000 0.000000 0.000000
-11.22507858 5.94697475 492.89233398 153 153 153 0.000000 0.000000 0.000000
-11.22079754 5.94906616 492.92010498 153 153 153 0.000000 0.000000 0.000000
-11.24170685 5.93669987 492.86972046 153 153 153 0.000000 0.000000 0.000000
-11.25241947 5.94699144 492.82751465 153 153 153 0.000000 0.000000 0.000000
-11.24042702 5.93531609 492.90667725 153 153 153 0.000000 0.000000 0.000000
-11.22178745 5.94842482 492.91943359 153 153 153 0.000000 0.000000 0.000000
-11.22012806 5.94599724 492.91296387 153 153 153 0.000000 0.000000 0.000000
-11.22076702 5.94787121 492.91076660 153 153 153 0.000000 0.000000 0.000000
-11.22890091 5.95122242 492.90301514 153 153 153 0.000000 0.000000 0.000000
-11.24552250 5.94069862 492.87661743 153 153 153 0.000000 0.000000 0.000000
-11.21947289 5.94915628 492.92425537 153 153 153 0.000000 0.000000 0.000000
-11.22953796 5.95114422 492.91928101 153 153 153 0.000000 0.000000 0.000000
-11.23908615 5.94853067 492.87817383 153 153 153 0.000000 0.000000 0.000000
-11.23925781 5.94130898 492.87509155 153 153 153 0.000000 0.000000 0.000000
-11.23974419 5.94323826 492.88928223 153 153 153 0.000000 0.000000 0.000000
-11.24320602 5.94207382 492.86657715 153 153 153 0.000000 0.000000 0.000000
-11.23074150 5.94341898 492.91336060 153 153 153 0.000000 0.000000 0.000000
-11.24594116 5.94684172 492.84432983 153 153 153 0.000000 0.000000 0.000000
-11.25242233 5.93830442 492.83468628 153 153 153 0.000000 0.000000 0.000000
-11.22821617 5.94679594 492.90423584 153 153 153 0.000000 0.000000 0.000000
-11.25030899 5.93688822 492.84759521 153 153 153 0.000000 0.000000 0.000000
-11.23056507 5.94138956 492.88949585 153 153 153 0.000000 0.000000 0.000000
-11.23142433 5.94228840 492.89093018 153 153 153 0.000000 0.000000 0.000000
-11.23296642 5.94813538 492.90997314 153 153 153 0.000000 0.000000 0.000000
-11.24213219 5.95036221 492.88809204 153 153 153 0.000000 0.000000 0.000000
-11.24158382 5.94538784 492.89187622 153 153 153 0.000000 0.000000 0.000000
-11.22720146 5.94847298 492.90890503 153 153 153 0.000000 0.000000 0.000000
-11.22399521 5.94719458 492.92028809 153 153 153 0.000000 0.000000 0.000000
-11.25434685 5.94468737 492.82571411 153 153 153 0.000000 0.000000 0.000000
-11.24272919 5.94848680 492.89483643 153 153 153 0.000000 0.000000 0.000000
-11.22624969 5.95424795 492.91452026 153 153 153 0.000000 0.000000 0.000000
-11.24931622 5.94973564 492.86492920 153 153 153 0.000000 0.000000 0.000000
-11.24213028 5.93840837 492.86151123 153 153 153 0.000000 0.000000 0.000000
-11.24631023 5.94531441 492.83312988 153 153 153 0.000000 0.000000 0.000000
-11.22907925 5.95037270 492.90350342 153 153 153 0.000000 0.000000 0.000000
-11.22628975 5.94366264 492.90838623 153 153 153 0.000000 0.000000 0.000000
-11.24373722 5.93632746 492.84838867 153 153 153 0.000000 0.000000 0.000000
-11.22483635 5.95006037 492.92245483 153 153 153 0.000000 0.000000 0.000000
-11.24195957 5.94515133 492.89248657 153 153 153 0.000000 0.000000 0.000000
-11.24313927 5.94432783 492.88180542 153 153 153 0.000000 0.000000 0.000000
-11.25439358 5.94234419 492.81689453 153 153 153 0.000000 0.000000 0.000000
-11.23277378 5.95056534 492.90258789 153 153 153 0.000000 0.000000 0.000000
-11.23800945 5.94234180 492.88195801 153 153 153 0.000000 0.000000 0.000000
-11.23300457 5.94423866 492.92572021 153 153 153 0.000000 0.000000 0.000000
-11.22400665 5.94854498 492.92132568 153 153 153 0.000000 0.000000 0.000000
-11.22212410 5.94807482 492.92376709 153 153 153 0.000000 0.000000 0.000000
-11.23261929 5.94651842 492.88244629 153 153 153 0.000000 0.000000 0.000000
-11.24383831 5.94048166 492.86563110 153 153 153 0.000000 0.000000 0.000000
-11.22524738 5.94969845 492.92797852 153 153 153 0.000000 0.000000 0.000000
-11.22396183 5.95135307 492.90530396 153 153 153 0.000000 0.000000 0.000000
-11.22519684 5.94706392 492.90982056 153 153 153 0.000000 0.000000 0.000000
-11.24833488 5.94504166 492.87274170 153 153 153 0.000000 0.000000 0.000000
-11.24367905 5.94853926 492.85409546 153 153 153 0.000000 0.000000 0.000000
-11.24076271 5.94722795 492.87356567 153 153 153 0.000000 0.000000 0.000000
-11.23794556 5.94217014 492.87527466 153 153 153 0.000000 0.000000 0.000000
-11.23727512 5.94567347 492.88653564 153 153 153 0.000000 0.000000 0.000000
-11.22733402 5.95254993 492.91113281 153 153 153 0.000000 0.000000 0.000000
-11.24509907 5.94923067 492.84851074 153 153 153 0.000000 0.000000 0.000000
-11.24954414 5.94069386 492.83123779 153 153 153 0.000000 0.000000 0.000000
-11.23565292 5.94367218 492.90374756 153 153 153 0.000000 0.000000 0.000000
-11.24517059 5.93784046 492.86376953 153 153 153 0.000000 0.000000 0.000000
-11.21878719 5.94804621 492.90844727 153 153 153 0.000000 0.000000 0.000000
-11.23115444 5.95104742 492.91549683 153 153 153 0.000000 0.000000 0.000000
-11.25350189 5.93980980 492.86358643 153 153 153 0.000000 0.000000 0.000000
-11.24855423 5.94197702 492.81228638 153 153 153 0.000000 0.000000 0.000000
-11.23185158 5.94413424 492.88467407 153 153 153 0.000000 0.000000 0.000000
-11.23346901 5.94659185 492.90313721 153 153 153 0.000000 0.000000 0.000000
-11.23751926 5.94439602 492.88705444 153 153 153 0.000000 0.000000 0.000000
-11.25475407 5.94740152 492.82434082 153 153 153 0.000000 0.000000 0.000000
-11.23999405 5.95121956 492.89511108 153 153 153 0.000000 0.000000 0.000000
-11.22770405 5.94535446 492.92480469 153 153 153 0.000000 0.000000 0.000000
-11.25544834 5.94301558 492.82974243 153 153 153 0.000000 0.000000 0.000000
-11.23651123 5.94919634 492.89865112 153 153 153 0.000000 0.000000 0.000000
-11.24214840 5.94505310 492.87500000 153 153 153 0.000000 0.000000 0.000000
-11.24222755 5.94354582 492.88980103 153 153 153 0.000000 0.000000 0.000000
-11.22756386 5.95505476 492.91506958 153 153 153 0.000000 0.000000 0.000000
-11.23682690 5.94820738 492.89987183 153 153 153 0.000000 0.000000 0.000000
-11.24716187 5.94398451 492.86935425 153 153 153 0.000000 0.000000 0.000000
-11.24002647 5.94168472 492.86471558 153 153 153 0.000000 0.000000 0.000000
-11.24053097 5.94025183 492.84271240 153 153 153 0.000000 0.000000 0.000000
-11.22686100 5.94574594 492.90237427 153 153 153 0.000000 0.000000 0.000000
-11.24459362 5.93518257 492.85409546 153 153 153 0.000000 0.000000 0.000000
-11.22952938 5.95171785 492.90277100 153 153 153 0.000000 0.000000 0.000000
-11.25295067 5.93945837 492.82672119 153 153 153 0.000000 0.000000 0.000000
-11.23849106 5.94871235 492.89373779 153 153 153 0.000000 0.000000 0.000000
-11.24220181 5.94329500 492.87567139 153 153 153 0.000000 0.000000 0.000000
-11.24118233 5.95005941 492.88931274 153 153 153 0.000000 0.000000 0.000000
-11.22003937 5.94996500 492.92349243 153 153 153 0.000000 0.000000 0.000000
-11.24217415 5.93821573 492.87063599 153 153 153 0.000000 0.000000 0.000000
-11.22870255 5.95136738 492.92861938 153 153 153 0.000000 0.000000 0.000000
-11.24834633 5.94981956 492.82296753 153 153 153 0.000000 0.000000 0.000000
-11.23336220 5.94105625 492.92028809 153 153 153 0.000000 0.000000 0.000000
-11.24474335 5.94076443 492.87475586 153 153 153 0.000000 0.000000 0.000000
-11.22202301 5.94800806 492.92456055 153 153 153 0.000000 0.000000 0.000000
-11.24247837 5.94683933 492.86013794 153 153 153 0.000000 0.000000 0.000000
-11.23696041 5.94368982 492.89260864 153 153 153 0.000000 0.000000 0.000000
-11.22769737 5.95389652 492.91259766 153 153 153 0.000000 0.000000 0.000000
-11.24534798 5.94914389 492.85128784 153 153 153 0.000000 0.000000 0.000000
-11.25165558 5.93789673 492.83407593 153 153 153 0.000000 0.000000 0.000000
-11.22476196 5.94797659 492.90667725 153 153 153 0.000000 0.000000 0.000000
-11.22609615 5.94620275 492.91690063 153 153 153 0.000000 0.000000 0.000000
-11.24549770 5.93999958 492.84243774 153 153 153 0.000000 0.000000 0.000000
-11.23521996 5.94552660 492.88659668 153 153 153 0.000000 0.000000 0.000000
-11.22669506 5.94496632 492.90707397 153 153 153 0.000000 0.000000 0.000000
-11.23842239 5.93914366 492.91073608 153 153 153 0.000000 0.000000 0.000000
-11.25478172 5.94324017 492.82556152 153 153 153 0.000000 0.000000 0.000000
-11.23780632 5.94170332 492.89428711 153 153 153 0.000000 0.000000 0.000000
-11.22409630 5.94654655 492.92184448 153 153 153 0.000000 0.000000 0.000000
-11.25460052 5.94468307 492.82705688 153 153 153 0.000000 0.000000 0.000000
-11.24144268 5.95153236 492.90151978 153 153 153 0.000000 0.000000 0.000000
-11.23860550 5.94881916 492.90362549 153 153 153 0.000000 0.000000 0.000000
-11.25369453 5.93832493 492.83529663 153 153 153 0.000000 0.000000 0.000000
-11.24466610 5.93854380 492.85705566 153 153 153 0.000000 0.000000 0.000000
-11.24935818 5.94726896 492.82638550 153 153 153 0.000000 0.000000 0.000000
-11.22916985 5.94432783 492.89233398 153 153 153 0.000000 0.000000 0.000000
-11.23003006 5.94639492 492.89913940 153 153 153 0.000000 0.000000 0.000000
-11.24453449 5.93745995 492.85220337 153 153 153 0.000000 0.000000 0.000000
-11.24748516 5.93899012 492.82788086 153 153 153 0.000000 0.000000 0.000000
-11.23421383 5.94938612 492.89816284 153 153 153 0.000000 0.000000 0.000000
-11.24269962 5.94368649 492.87219238 153 153 153 0.000000 0.000000 0.000000
-11.22756577 5.95274973 492.92764282 153 153 153 0.000000 0.000000 0.000000
-11.23352146 5.94613457 492.91738892 153 153 153 0.000000 0.000000 0.000000
-11.24084282 5.94995642 492.88977051 153 153 153 0.000000 0.000000 0.000000
-11.22522831 5.94817972 492.90798950 153 153 153 0.000000 0.000000 0.000000
-11.22037983 5.94889832 492.91921997 153 153 153 0.000000 0.000000 0.000000
-11.22772312 5.95080233 492.91113281 153 153 153 0.000000 0.000000 0.000000
-11.24241066 5.94730091 492.86956787 153 153 153 0.000000 0.000000 0.000000
-11.24064541 5.94541883 492.88610840 153 153 153 0.000000 0.000000 0.000000
-11.22516537 5.95361519 492.91183472 153 153 153 0.000000 0.000000 0.000000
-11.24726009 5.94888020 492.85342407 153 153 153 0.000000 0.000000 0.000000
-11.24743176 5.93752003 492.83218384 153 153 153 0.000000 0.000000 0.000000
-11.22601223 5.94817877 492.91152954 153 153 153 0.000000 0.000000 0.000000
-11.24545956 5.93784046 492.83944702 153 153 153 0.000000 0.000000 0.000000
-11.24690056 5.94065189 492.82012939 153 153 153 0.000000 0.000000 0.000000
-11.22914696 5.94459772 492.88452148 153 153 153 0.000000 0.000000 0.000000
-11.23601913 5.94563293 492.89938354 153 153 153 0.000000 0.000000 0.000000
-11.23066711 5.94710827 492.91952515 153 153 153 0.000000 0.000000 0.000000
-11.24981689 5.94558764 492.82794189 153 153 153 0.000000 0.000000 0.000000
-11.24000549 5.94836140 492.89324951 153 153 153 0.000000 0.000000 0.000000
-11.22641563 5.94784021 492.90954590 153 153 153 0.000000 0.000000 0.000000
-11.25347996 5.94453049 492.82839966 153 153 153 0.000000 0.000000 0.000000
-11.23544693 5.94875431 492.90383911 153 153 153 0.000000 0.000000 0.000000
-11.24194622 5.95075274 492.88320923 153 153 153 0.000000 0.000000 0.000000
-11.22640133 5.95148993 492.91101074 153 153 153 0.000000 0.000000 0.000000
-11.24875355 5.94327068 492.86883545 153 153 153 0.000000 0.000000 0.000000
-11.24140835 5.94110823 492.85903931 153 153 153 0.000000 0.000000 0.000000
-11.24660206 5.94930601 492.82952881 153 153 153 0.000000 0.000000 0.000000
-11.24353886 5.94378614 492.84674072 153 153 153 0.000000 0.000000 0.000000
-11.22895908 5.94332743 492.90057373 153 153 153 0.000000 0.000000 0.000000
-11.23011875 5.94322252 492.90670776 153 153 153 0.000000 0.000000 0.000000
-11.22103310 5.94936419 492.92288208 153 153 153 0.000000 0.000000 0.000000
-11.23803902 5.94422674 492.88735962 153 153 153 0.000000 0.000000 0.000000
-11.25412846 5.93904495 492.82675171 153 153 153 0.000000 0.000000 0.000000
-11.24403286 5.94102192 492.87951660 153 153 153 0.000000 0.000000 0.000000
