//X Y Z R G B Nx Ny Nz
-11.45480061 6.43870211 492.75640869 153 153 153 0.000000 0.000000 0.000000
-11.45152283 6.44109869 492.71804810 153 153 153 0.000000 0.000000 0.000000
-11.43433857 6.43385029 492.70834351 153 153 153 0.000000 0.000000 0.000000
-11.44945908 6.44286346 492.73236084 153 153 153 0.000000 0.000000 0.000000
-11.45426464 6.44109154 492.76220703 153 153 153 0.000000 0.000000 0.000000
-11.45490170 6.43539143 492.75390625 153 153 153 0.000000 0.000000 0.000000
-11.44044590 6.43858290 492.73129272 153 153 153 0.000000 0.000000 0.000000
-11.45848179 6.43782663 492.76937866 153 153 153 0.000000 0.000000 0.000000
-11.43516064 6.44265842 492.71484375 153 153 153 0.000000 0.000000 0.000000
-11.44162846 6.43244791 492.75588989 153 153 153 0.000000 0.000000 0.000000
-11.44512367 6.43286467 492.70651245 153 153 153 0.000000 0.000000 0.000000
-11.45464325 6.44169044 492.76391602 153 153 153 0.000000 0.000000 0.000000
-11.43832684 6.44104385 492.72445679 153 153 153 0.000000 0.000000 0.000000
-11.43600845 6.43568659 492.68472290 153 153 153 0.000000 0.000000 0.000000
-11.43843174 6.43170500 492.71920776 153 153 153 0.000000 0.000000 0.000000
-11.46133614 6.43777275 492.76715088 153 153 153 0.000000 0.000000 0.000000
-11.45542526 6.44026375 492.76126099 153 153 153 0.000000 0.000000 0.000000
-11.44101048 6.44133711 492.74624634 153 153 153 0.000000 0.000000 0.000000
-11.45163631 6.43785286 492.75109863 153 153 153 0.000000 0.000000 0.000000
-11.43955326 6.44403505 492.70648193 153 153 153 0.000000 0.000000 0.000000
-11.43085575 6.43327665 492.70886230 153 153 153 0.000000 0.000000 0.000000
-11.44927216 6.43504953 492.72705078 153 153 153 0.000000 0.000000 0.000000
-11.45013142 6.44485235 492.74517822 153 153 153 0.000000 0.000000 0.000000
-11.44783592 6.43371964 492.73403931 153 153 153 0.000000 0.000000 0.000000
-11.43126965 6.43853092 492.70166016 153 153 153 0.000000 0.000000 0.000000
-11.44148445 6.44250774 492.73812866 153 153 153 0.000000 0.000000 0.000000
-11.44623756 6.44434404 492.74230957 153 153 153 0.000000 0.000000 0.000000
-11.43903637 6.43914843 492.70816040 153 153 153 0.000000 0.000000 0.000000
-11.43735218 6.44145203 492.71621704 153 153 153 0.000000 0.000000 0.000000
-11.45164490 6.43729496 492.73046875 153 153 153 0.000000 0.000000 0.000000
-11.44834614 6.43574667 492.73092651 153 153 153 0.000000 0.000000 0.000000
-11.43352604 6.43308783 492.71081543 153 153 153 0.000000 0.000000 0.000000
-11.45965099 6.43871880 492.75531006 153 153 153 0.000000 0.000000 0.000000
-11.45559788 6.44511557 492.74179077 153 153 153 0.000000 0.000000 0.000000
-11.45668411 6.44275522 492.73309326 153 153 153 0.000000 0.000000 0.000000
-11.43362236 6.43930006 492.71472168 153 153 153 0.000000 0.000000 0.000000
-11.45439911 6.44013023 492.75256348 153 153 153 0.000000 0.000000 0.000000
-11.43937206 6.43375444 492.70227051 153 153 153 0.000000 0.000000 0.000000
-11.45431805 6.43474197 492.75405884 153 153 153 0.000000 0.000000 0.000000
-11.45930481 6.44313240 492.75051880 153 153 153 0.000000 0.000000 0.000000
-11.44162083 6.43377066 492.72167969 153 153 153 0.000000 0.000000 0.000000
-11.43202782 6.43288851 492.71066284 153 153 153 0.000000 0.000000 0.000000
-11.45788860 6.44264793 492.76132202 153 153 153 0.000000 0.000000 0.000000
-11.45720387 6.44009209 492.75625610 153 153 153 0.000000 0.000000 0.000000
-11.43186569 6.42976761 492.70300293 153 153 153 0.000000 0.000000 0.000000
-11.43050480 6.43350554 492.70449829 153 153 153 0.000000 0.000000 0.000000
-11.45862103 6.44153118 492.74700928 153 153 153 0.000000 0.000000 0.000000
-11.44944096 6.44147158 492.74533081 153 153 153 0.000000 0.000000 0.000000
-11.45128250 6.43646574 492.75238037 153 153 153 0.000000 0.000000 0.000000
-11.45775127 6.43840647 492.75866699 153 153 153 0.000000 0.000000 0.000000
-11.43380737 6.44219017 492.70242310 153 153 153 0.000000 0.000000 0.000000
-11.45658779 6.44318438 492.76943970 153 153 153 0.000000 0.000000 0.000000
-11.44018078 6.43414736 492.72195435 153 153 153 0.000000 0.000000 0.000000
-11.43603134 6.43342876 492.70312500 153 153 153 0.000000 0.000000 0.000000
-11.44948864 6.43337774 492.74249268 153 153 153 0.000000 0.000000 0.000000
-11.44039440 6.44299889 492.69741821 153 153 153 0.000000 0.000000 0.000000
-11.45877171 6.43906450 492.75375366 153 153 153 0.000000 0.000000 0.000000
-11.45525169 6.43516636 492.75366211 153 153 153 0.000000 0.000000 0.000000
-11.44635391 6.43389225 492.73007202 153 153 153 0.000000 0.000000 0.000000
-11.43603611 6.44379663 492.71051025 153 153 153 0.000000 0.000000 0.000000
-11.45715046 6.43920040 492.76708984 153 153 153 0.000000 0.000000 0.000000
-11.44042587 6.43431377 492.70700073 153 153 153 0.000000 0.000000 0.000000
-11.45701694 6.44021797 492.76446533 153 153 153 0.000000 0.000000 0.000000
-11.44866085 6.43728828 492.73425293 153 153 153 0.000000 0.000000 0.000000
-11.45603275 6.43223906 492.75390625 153 153 153 0.000000 0.000000 0.000000
-11.44599915 6.43835163 492.71017456 153 153 153 0.000000 0.000000 0.000000
-11.45966244 6.43611431 492.76510620 153 153 153 0.000000 0.000000 0.000000
-11.42994881 6.43545580 492.69696045 153 153 153 0.000000 0.000000 0.000000
-11.43711853 6.43169641 492.70886230 153 153 153 0.000000 0.000000 0.000000
-11.44679642 6.43945503 492.73553467 153 153 153 0.000000 0.000000 0.000000
-11.43949604 6.43321848 492.71755981 153 153 153 0.000000 0.000000 0.000000
-11.45287132 6.43555260 492.74349976 153 153 153 0.000000 0.000000 0.000000
-11.44870090 6.44059753 492.73937988 153 153 153 0.000000 0.000000 0.000000
-11.45572186 6.44640684 492.74752808 153 153 153 0.000000 0.000000 0.000000
-11.44162560 6.43857718 492.73104858 153 153 153 0.000000 0.000000 0.000000
-11.45009136 6.43367100 492.73757935 153 153 153 0.000000 0.000000 0.000000
-11.43441868 6.43510389 492.70266724 153 153 153 0.000000 0.000000 0.000000
-11.44705868 6.43302536 492.72653198 153 153 153 0.000000 0.000000 0.000000
-11.43103027 6.43350935 492.71917725 153 153 153 0.000000 0.000000 0.000000
-11.43386459 6.44071817 492.71170044 153 153 153 0.000000 0.000000 0.000000
-11.45931053 6.43832874 492.75949097 153 153 153 0.000000 0.000000 0.000000
-11.44099712 6.44466305 492.74502563 153 153 153 0.000000 0.000000 0.000000
-11.43438148 6.43361807 492.70959473 153 153 153 0.000000 0.000000 0.000000
-11.44762707 6.43378592 492.72711182 153 153 153 0.000000 0.000000 0.000000
-11.44803524 6.44596195 492.73025513 153 153 153 0.000000 0.000000 0.000000
-11.45312309 6.44311237 492.74636841 153 153 153 0.000000 0.000000 0.000000
-11.43203735 6.43561935 492.68676758 153 153 153 0.000000 0.000000 0.000000
-11.43800640 6.44228077 492.72415161 153 153 153 0.000000 0.000000 0.000000
-11.43379784 6.43270922 492.71047974 153 153 153 0.000000 0.000000 0.000000
-11.44636250 6.43506432 492.71661377 153 153 153 0.000000 0.000000 0.000000
-11.44455433 6.43193340 492.73019409 153 153 153 0.000000 0.000000 0.000000
-11.42902851 6.43912172 492.71966553 153 153 153 0.000000 0.000000 0.000000
-11.45234394 6.43956709 492.74353027 153 153 153 0.000000 0.000000 0.000000
-11.46083069 6.43828535 492.77224731 153 153 153 0.000000 0.000000 0.000000
-11.43676376 6.43299913 492.71273804 153 153 153 0.000000 0.000000 0.000000
-11.43183517 6.43118048 492.70217896 153 153 153 0.000000 0.000000 0.000000
-11.45733070 6.44458914 492.75845337 153 153 153 0.000000 0.000000 0.000000
-11.44246292 6.43205786 492.72433472 153 153 153 0.000000 0.000000 0.000000
-11.44447422 6.43338823 492.71682739 153 153 153 0.000000 0.000000 0.000000
-11.45674896 6.44174480 492.76223755 153 153 153 0.000000 0.000000 0.000000
-11.45642281 6.44122505 492.75170898 153 153 153 0.000000 0.000000 0.000000
-11.43529892 6.43816710 492.69363403 153 153 153 0.000000 0.000000 0.000000
-11.44930840 6.43394709 492.75662231 153 153 153 0.000000 0.000000 0.000000
-11.45348549 6.43856144 492.76889038 153 153 153 0.000000 0.000000 0.000000
-11.44249058 6.43622303 492.69229126 153 153 153 0.000000 0.000000 0.000000
-11.45591545 6.43930292 492.77059937 153 153 153 0.000000 0.000000 0.000000
-11.45474720 6.43955898 492.75277710 153 153 153 0.000000 0.000000 0.000000
-11.44838142 6.44318390 492.75585938 153 153 153 0.000000 0.000000 0.000000
-11.45507050 6.44313955 492.74395752 153 153 153 0.000000 0.000000 0.000000
-11.43595695 6.44020128 492.69302368 153 153 153 0.000000 0.000000 0.000000
-11.44264889 6.43800163 492.73596191 153 153 153 0.000000 0.000000 0.000000
-11.43193722 6.44056702 492.70233154 153 153 153 0.000000 0.000000 0.000000
-11.44379425 6.43681097 492.74044800 153 153 153 0.000000 0.000000 0.000000
-11.45921040 6.44074392 492.76370239 153 153 153 0.000000 0.000000 0.000000
-11.44306564 6.44308281 492.72503662 153 153 153 0.000000 0.000000 0.000000
-11.43496799 6.44204140 492.70529175 153 153 153 0.000000 0.000000 0.000000
-11.45734119 6.44493723 492.76550293 153 153 153 0.000000 0.000000 0.000000
-11.45734978 6.43465137 492.77355957 153 153 153 0.000000 0.000000 0.000000
-11.45637798 6.43338060 492.75204468 153 153 153 0.000000 0.000000 0.000000
-11.44002724 6.43813372 492.70318604 153 153 153 0.000000 0.000000 0.000000
-11.45665932 6.43951559 492.76342773 153 153 153 0.000000 0.000000 0.000000
-11.43271446 6.43435144 492.71209717 153 153 153 0.000000 0.000000 0.000000
-11.43322277 6.43281603 492.68811035 153 153 153 0.000000 0.000000 0.000000
-11.43537140 6.43317127 492.71734619 153 153 153 0.000000 0.000000 0.000000
-11.45525169 6.43969440 492.76379395 153 153 153 0.000000 0.000000 0.000000
-11.45465946 6.43744278 492.75427246 153 153 153 0.000000 0.000000 0.000000
-11.44478703 6.43842077 492.73468018 153 153 153 0.000000 0.000000 0.000000
-11.45024204 6.43788004 492.72583008 153 153 153 0.000000 0.000000 0.000000
-11.44789505 6.44052696 492.72842407 153 153 153 0.000000 0.000000 0.000000
-11.43276405 6.43760014 492.70129395 153 153 153 0.000000 0.000000 0.000000
-11.44943047 6.43579197 492.70690918 153 153 153 0.000000 0.000000 0.000000
-11.43819427 6.44166517 492.70812988 153 153 153 0.000000 0.000000 0.000000
-11.44686031 6.43545198 492.72396851 153 153 153 0.000000 0.000000 0.000000
-11.43133163 6.43751955 492.70300293 153 153 153 0.000000 0.000000 0.000000
-11.45458508 6.44031954 492.76245117 153 153 153 0.000000 0.000000 0.000000
-11.44187355 6.44141102 492.72012329 153 153 153 0.000000 0.000000 0.000000
-11.42969608 6.42975235 492.70486450 153 153 153 0.000000 0.000000 0.000000
-11.44614220 6.43505144 492.72677612 153 153 153 0.000000 0.000000 0.000000
-11.44676018 6.44754314 492.73651123 153 153 153 0.000000 0.000000 0.000000
-11.43758678 6.44407463 492.70184326 153 153 153 0.000000 0.000000 0.000000
-11.43475056 6.43176174 492.73919678 153 153 153 0.000000 0.000000 0.000000
-11.45033455 6.43178320 492.78729248 153 153 153 0.000000 0.000000 0.000000
-11.45070362 6.43418074 492.73623657 153 153 153 0.000000 0.000000 0.000000
-11.44731617 6.44468546 492.73645020 153 153 153 0.000000 0.000000 0.000000
-11.43916416 6.43234301 492.70135498 153 153 153 0.000000 0.000000 0.000000
-11.43533897 6.44404459 492.71023560 153 153 153 0.000000 0.000000 0.000000
-11.45874500 6.44024277 492.76602173 153 153 153 0.000000 0.000000 0.000000
-11.45673275 6.44103575 492.76187134 153 153 153 0.000000 0.000000 0.000000
-11.44979668 6.43707371 492.72354126 153 153 153 0.000000 0.000000 0.000000
-11.43479633 6.44180155 492.70263672 153 153 153 0.000000 0.000000 0.000000
-11.45798206 6.44193554 492.74890137 153 153 153 0.000000 0.000000 0.000000
-11.43143368 6.44081163 492.70031738 153 153 153 0.000000 0.000000 0.000000
-11.45708275 6.44595098 492.76293945 153 153 153 0.000000 0.000000 0.000000
-11.45666122 6.44407034 492.76583862 153 153 153 0.000000 0.000000 0.000000
-11.45759964 6.43915892 492.75100708 153 153 153 0.000000 0.000000 0.000000
-11.43190289 6.43364477 492.68527222 153 153 153 0.000000 0.000000 0.000000
-11.45144558 6.43460655 492.74066162 153 153 153 0.000000 0.000000 0.000000
-11.45434284 6.43848419 492.75790405 153 153 153 0.000000 0.000000 0.000000
-11.44485855 6.43503189 492.72180176 153 153 153 0.000000 0.000000 0.000000
-11.43431854 6.43706608 492.69918823 153 153 153 0.000000 0.000000 0.000000
-11.46037769 6.44073963 492.75909424 153 153 153 0.000000 0.000000 0.000000
-11.45294285 6.44710875 492.73452759 153 153 153 0.000000 0.000000 0.000000
-11.45406246 6.43762922 492.74667358 153 153 153 0.000000 0.000000 0.000000
-11.45261765 6.43666315 492.74731445 153 153 153 0.000000 0.000000 0.000000
-11.43726254 6.43629217 492.69387817 153 153 153 0.000000 0.000000 0.000000
-11.45540047 6.43630838 492.75207520 153 153 153 0.000000 0.000000 0.000000
-11.44222736 6.43931580 492.73071289 153 153 153 0.000000 0.000000 0.000000
-11.43740177 6.43374681 492.71771240 153 153 153 0.000000 0.000000 0.000000
-11.44424820 6.43862295 492.74270630 153 153 153 0.000000 0.000000 0.000000
-11.45802689 6.44294214 492.75106812 153 153 153 0.000000 0.000000 0.000000
-11.44145679 6.43890476 492.72860718 153 153 153 0.000000 0.000000 0.000000
-11.43338680 6.44024658 492.70666504 153 153 153 0.000000 0.000000 0.000000
-11.45993996 6.43908930 492.76318359 153 153 153 0.000000 0.000000 0.000000
-11.43723202 6.43750238 492.70635986 153 153 153 0.000000 0.000000 0.000000
-11.45659828 6.43903542 492.77890015 153 153 153 0.000000 0.000000 0.000000
-11.45181370 6.43754339 492.72393799 153 153 153 0.000000 0.000000 0.000000
-11.45782471 6.43612003 492.75555420 153 153 153 0.000000 0.000000 0.000000
-11.43517113 6.43675518 492.70925903 153 153 153 0.000000 0.000000 0.000000
-11.43799686 6.43872070 492.72052002 153 153 153 0.000000 0.000000 0.000000
-11.42853069 6.43145704 492.69635010 153 153 153 0.000000 0.000000 0.000000
-11.45038414 6.43285990 492.75390625 153 153 153 0.000000 0.000000 0.000000
-11.43931580 6.44223261 492.71740723 153 153 153 0.000000 0.000000 0.000000
-11.45400715 6.43714380 492.75421143 153 153 153 0.000000 0.000000 0.000000
-11.45187473 6.43660879 492.75653076 153 153 153 0.000000 0.000000 0.000000
-11.43554115 6.43874168 492.71572876 153 153 153 0.000000 0.000000 0.000000
-11.45933723 6.43652916 492.76068115 153 153 153 0.000000 0.000000 0.000000
-11.44943905 6.44024467 492.73669434 153 153 153 0.000000 0.000000 0.000000
-11.45017624 6.43506241 492.72604370 153 153 153 0.000000 0.000000 0.000000
-11.44927502 6.43401432 492.73446655 153 153 153 0.000000 0.000000 0.000000
-11.43771648 6.43544292 492.69055176 153 153 153 0.000000 0.000000 0.000000
-11.44670105 6.43481970 492.71813965 153 153 153 0.000000 0.000000 0.000000
-11.45824528 6.43697739 492.76483154 153 153 153 0.000000 0.000000 0.000000
-11.44214439 6.44373655 492.73016357 153 153 153 0.000000 0.000000 0.000000
-11.44520283 6.43237972 492.73394775 153 153 153 0.000000 0.000000 0.000000
-11.43889904 6.43641186 492.72283936 153 153 153 0.000000 0.000000 0.000000
-11.44469643 6.44340944 492.74859619 153 153 153 0.000000 0.000000 0.000000
-11.44624329 6.44184256 492.74176025 153 153 153 0.000000 0.000000 0.000000
-11.44519234 6.43727064 492.74551392 153 153 153 0.000000 0.000000 0.000000
-11.43430138 6.44021225 492.71609497 153 153 153 0.000000 0.000000 0.000000
-11.45429325 6.43724871 492.74737549 153 153 153 0.000000 0.000000 0.000000
-11.43930244 6.43507910 492.70523071 153 153 153 0.000000 0.000000 0.000000
-11.45471191 6.43962622 492.78024292 153 153 153 0.000000 0.000000 0.000000
-11.43196678 6.43219328 492.70526123 153 153 153 0.000000 0.000000 0.000000
-11.44052696 6.44428158 492.73547363 153 153 153 0.000000 0.000000 0.000000
-11.45166397 6.43824387 492.72845459 153 153 153 0.000000 0.000000 0.000000
-11.45626640 6.44313478 492.75103760 153 153 153 0.000000 0.000000 0.000000
-11.43788052 6.43893719 492.69625854 153 153 153 0.000000 0.000000 0.000000
-11.44223213 6.43336105 492.72045898 153 153 153 0.000000 0.000000 0.000000
-11.45847034 6.44328833 492.76580811 153 153 153 0.000000 0.000000 0.000000
-11.45714951 6.43531036 492.75442505 153 153 153 0.000000 0.000000 0.000000
-11.43198395 6.43725300 492.68725586 153 153 153 0.000000 0.000000 0.000000
-11.45423985 6.44588709 492.74902344 153 153 153 0.000000 0.000000 0.000000
-11.45621777 6.44013596 492.75952148 153 153 153 0.000000 0.000000 0.000000
-11.45624447 6.44213390 492.76071167 153 153 153 0.000000 0.000000 0.000000
-11.45562267 6.44175243 492.74722290 153 153 153 0.000000 0.000000 0.000000
-11.45376778 6.43433189 492.74954224 153 153 153 0.000000 0.000000 0.000000
-11.45152855 6.44064331 492.75982666 153 153 153 0.000000 0.000000 0.000000
-11.43060684 6.44078875 492.69317627 153 153 153 0.000000 0.000000 0.000000
-11.45475006 6.43855238 492.75720215 153 153 153 0.000000 0.000000 0.000000
-11.44381046 6.44020605 492.72943115 153 153 153 0.000000 0.000000 0.000000
-11.43709087 6.43083239 492.71136475 153 153 153 0.000000 0.000000 0.000000
-11.44611359 6.43870258 492.73010254 153 153 153 0.000000 0.000000 0.000000
-11.43463135 6.43785954 492.70166016 153 153 153 0.000000 0.000000 0.000000
-11.45054054 6.44266510 492.76495361 153 153 153 0.000000 0.000000 0.000000
-11.45569229 6.43581152 492.75244141 153 153 153 0.000000 0.000000 0.000000
-11.44133282 6.44284248 492.72290039 153 153 153 0.000000 0.000000 0.000000
-11.45394039 6.43954515 492.76065063 153 153 153 0.000000 0.000000 0.000000
-11.45636368 6.43566227 492.75207520 153 153 153 0.000000 0.000000 0.000000
-11.45772362 6.44128227 492.75637817 153 153 153 0.000000 0.000000 0.000000
-11.44736004 6.44006014 492.72021484 153 153 153 0.000000 0.000000 0.000000
-11.43411446 6.43357849 492.68984985 153 153 153 0.000000 0.000000 0.000000
-11.44654465 6.43948221 492.73730469 153 153 153 0.000000 0.000000 0.000000
-11.43784142 6.43995190 492.71606445 153 153 153 0.000000 0.000000 0.000000
-11.45392323 6.43827057 492.76931763 153 153 153 0.000000 0.000000 0.000000
-11.44507599 6.44371510 492.72454834 153 153 153 0.000000 0.000000 0.000000
-11.45210552 6.43525362 492.75405884 153 153 153 0.000000 0.000000 0.000000
-11.45899582 6.43677330 492.74838257 153 153 153 0.000000 0.000000 0.000000
-11.44963932 6.43879128 492.73623657 153 153 153 0.000000 0.000000 0.000000
-11.44919872 6.43621254 492.74508667 153 153 153 0.000000 0.000000 0.000000
-11.44072723 6.43790007 492.72201538 153 153 153 0.000000 0.000000 0.000000
-11.45507240 6.44208956 492.72653198 153 153 153 0.000000 0.000000 0.000000
-11.44868469 6.43921852 492.73684692 153 153 153 0.000000 0.000000 0.000000
-11.45839310 6.44203997 492.75283813 153 153 153 0.000000 0.000000 0.000000
-11.44484043 6.43340349 492.72781372 153 153 153 0.000000 0.000000 0.000000
-11.44701958 6.43432379 492.72866821 153 153 153 0.000000 0.000000 0.000000
-11.44256306 6.44148540 492.70147705 153 153 153 0.000000 0.000000 0.000000
-11.44658566 6.43832874 492.74645996 153 153 153 0.000000 0.000000 0.000000
-11.44753456 6.43827534 492.74566650 153 153 153 0.000000 0.000000 0.000000
-11.43911552 6.44694710 492.74093628 153 153 153 0.000000 0.000000 0.000000
-11.45075130 6.43090487 492.73056030 153 153 153 0.000000 0.000000 0.000000
-11.43778610 6.44269323 492.72018433 153 153 153 0.000000 0.000000 0.000000
-11.43727875 6.43927097 492.71716309 153 153 153 0.000000 0.000000 0.000000
-11.44703007 6.44466448 492.73580933 153 153 153 0.000000 0.000000 0.000000
-11.43499374 6.42913866 492.71212769 153 153 153 0.000000 0.000000 0.000000
-11.45464230 6.43935966 492.72225952 153 153 153 0.000000 0.000000 0.000000
-11.43387222 6.43472624 492.71365356 153 153 153 0.000000 0.000000 0.000000
-11.46062565 6.43948841 492.77047729 153 153 153 0.000000 0.000000 0.000000
-11.44589996 6.44238186 492.73510742 153 153 153 0.000000 0.000000 0.000000
-11.43232536 6.44113874 492.69757080 153 153 153 0.000000 0.000000 0.000000
-11.45699215 6.44159508 492.74325562 153 153 153 0.000000 0.000000 0.000000
-11.43702888 6.43255520 492.69998169 153 153 153 0.000000 0.000000 0.000000
-11.44081116 6.43724728 492.72705078 153 153 153 0.000000 0.000000 0.000000
-11.43521023 6.43188953 492.70944214 153 153 153 0.000000 0.000000 0.000000
-11.45616531 6.44023895 492.76116943 153 153 153 0.000000 0.000000 0.000000
-11.43287277 6.43112898 492.70687866 153 153 153 0.000000 0.000000 0.000000
-11.45133495 6.43551683 492.74331665 153 153 153 0.000000 0.000000 0.000000
-11.44562817 6.43392324 492.73138428 153 153 153 0.000000 0.000000 0.000000
-11.43858433 6.43378019 492.71908569 153 153 153 0.000000 0.000000 0.000000
-11.45424938 6.44065094 492.75494385 153 153 153 0.000000 0.000000 0.000000
-11.45299625 6.43917036 492.74133301 153 153 153 0.000000 0.000000 0.000000
-11.45127869 6.44106531 492.75198364 153 153 153 0.000000 0.000000 0.000000
-11.43574142 6.43724251 492.69653320 153 153 153 0.000000 0.000000 0.000000
-11.44813251 6.43206501 492.72738647 153 153 153 0.000000 0.000000 0.000000
-11.43568230 6.42986488 492.69873047 153 153 153 0.000000 0.000000 0.000000
-11.44554901 6.43938875 492.74035645 153 153 153 0.000000 0.000000 0.000000
-11.43085480 6.43681288 492.70028687 153 153 153 0.000000 0.000000 0.000000
-11.44583035 6.44280100 492.74597168 153 153 153 0.000000 0.000000 0.000000
-11.45516014 6.43911552 492.75643921 153 153 153 0.000000 0.000000 0.000000
-11.44616222 6.43725538 492.73037720 153 153 153 0.000000 0.000000 0.000000
-11.45997143 6.44411850 492.76486206 153 153 153 0.000000 0.000000 0.000000
-11.43394184 6.43751097 492.71478271 153 153 153 0.000000 0.000000 0.000000
-11.45414352 6.43437195 492.77117920 153 153 153 0.000000 0.000000 0.000000
-11.45703411 6.43656015 492.75366211 153 153 153 0.000000 0.000000 0.000000
-11.43843460 6.43604469 492.70080566 153 153 153 0.000000 0.000000 0.000000
-11.44962025 6.43400383 492.75051880 153 153 153 0.000000 0.000000 0.000000
-11.43742657 6.43856335 492.71575928 153 153 153 0.000000 0.000000 0.000000
-11.43333626 6.43542051 492.68908691 153 153 153 0.000000 0.000000 0.000000
-11.44287777 6.44128752 492.71456909 153 153 153 0.000000 0.000000 0.000000
-11.45773220 6.43938398 492.77474976 153 153 153 0.000000 0.000000 0.000000
-11.44135571 6.43102646 492.72869873 153 153 153 0.000000 0.000000 0.000000
-11.45491409 6.43614006 492.75756836 153 153 153 0.000000 0.000000 0.000000
-11.45924664 6.43591928 492.75942993 153 153 153 0.000000 0.000000 0.000000
-11.44241810 6.44599199 492.73065186 153 153 153 0.000000 0.000000 0.000000
-11.43424511 6.43359137 492.71450806 153 153 153 0.000000 0.000000 0.000000
-11.45313931 6.43954897 492.72814941 153 153 153 0.000000 0.000000 0.000000
-11.45171356 6.43551159 492.73843384 153 153 153 0.000000 0.000000 0.000000
-11.43533993 6.44247150 492.70663452 153 153 153 0.000000 0.000000 0.000000
-11.44126797 6.43625164 492.74328613 153 153 153 0.000000 0.000000 0.000000
-11.44559193 6.43605709 492.73461914 153 153 153 0.000000 0.000000 0.000000
-11.45146465 6.43488455 492.75503540 153 153 153 0.000000 0.000000 0.000000
-11.43374825 6.43519497 492.71054077 153 153 153 0.000000 0.000000 0.000000
-11.45001602 6.43975449 492.72988892 153 153 153 0.000000 0.000000 0.000000
-11.43959618 6.43019390 492.71908569 153 153 153 0.000000 0.000000 0.000000
-11.43812466 6.44271040 492.71795654 153 153 153 0.000000 0.000000 0.000000
-11.45102215 6.44667435 492.74111938 153 153 153 0.000000 0.000000 0.000000
-11.44621086 6.44351292 492.74801636 153 153 153 0.000000 0.000000 0.000000
-11.44635487 6.43920708 492.73187256 153 153 153 0.000000 0.000000 0.000000
-11.43314838 6.43794537 492.71444702 153 153 153 0.000000 0.000000 0.000000
-11.45775890 6.43369675 492.75396729 153 153 153 0.000000 0.000000 0.000000
-11.44268417 6.43455124 492.71914673 153 153 153 0.000000 0.000000 0.000000
-11.42826843 6.43955517 492.71231079 153 153 153 0.000000 0.000000 0.000000
-11.43063259 6.43306494 492.69207764 153 153 153 0.000000 0.000000 0.000000
-11.44141960 6.43423843 492.73291016 153 153 153 0.000000 0.000000 0.000000
-11.45881367 6.43900442 492.77108765 153 153 153 0.000000 0.000000 0.000000
-11.44785404 6.44144821 492.74334717 153 153 153 0.000000 0.000000 0.000000
-11.45913601 6.44137955 492.76455688 153 153 153 0.000000 0.000000 0.000000
-11.44001484 6.43928957 492.73825073 153 153 153 0.000000 0.000000 0.000000
-11.42990589 6.43681526 492.69473267 153 153 153 0.000000 0.000000 0.000000
-11.45583439 6.44708586 492.74072266 153 153 153 0.000000 0.000000 0.000000
-11.43823624 6.43842793 492.69494629 153 153 153 0.000000 0.000000 0.000000
-11.44306087 6.43900776 492.71804810 153 153 153 0.000000 0.000000 0.000000
-11.43705368 6.43303490 492.70712280 153 153 153 0.000000 0.000000 0.000000
-11.43601227 6.43977928 492.69488525 153 153 153 0.000000 0.000000 0.000000
-11.45002270 6.43090153 492.73645020 153 153 153 0.000000 0.000000 0.000000
-11.45471954 6.43816948 492.75360107 153 153 153 0.000000 0.000000 0.000000
-11.44712067 6.43793726 492.71313477 153 153 153 0.000000 0.000000 0.000000
-11.44489861 6.43828297 492.69888306 153 153 153 0.000000 0.000000 0.000000
-11.45411873 6.44177437 492.74948120 153 153 153 0.000000 0.000000 0.000000
-11.44993401 6.43930864 492.73358154 153 153 153 0.000000 0.000000 0.000000
-11.45577908 6.44362211 492.75094604 153 153 153 0.000000 0.000000 0.000000
-11.43688679 6.44032764 492.69171143 153 153 153 0.000000 0.000000 0.000000
-11.45568943 6.43275785 492.75335693 153 153 153 0.000000 0.000000 0.000000
-11.43573666 6.43299818 492.73083496 153 153 153 0.000000 0.000000 0.000000
-11.45689964 6.44309092 492.73962402 153 153 153 0.000000 0.000000 0.000000
-11.45682144 6.43535423 492.76745605 153 153 153 0.000000 0.000000 0.000000
-11.45513725 6.43922186 492.75271606 153 153 153 0.000000 0.000000 0.000000
-11.42834949 6.43664742 492.71475220 153 153 153 0.000000 0.000000 0.000000
-11.45632839 6.43846464 492.75903320 153 153 153 0.000000 0.000000 0.000000
-11.44024181 6.44148779 492.69631958 153 153 153 0.000000 0.000000 0.000000
-11.45408726 6.43854141 492.76763916 153 153 153 0.000000 0.000000 0.000000
-11.45599079 6.43474865 492.75384521 153 153 153 0.000000 0.000000 0.000000
-11.45386314 6.44134331 492.74987793 153 153 153 0.000000 0.000000 0.000000
-11.45637417 6.44072008 492.76214600 153 153 153 0.000000 0.000000 0.000000
-11.43988419 6.44290686 492.70996094 153 153 153 0.000000 0.000000 0.000000
-11.45827198 6.43968534 492.75750732 153 153 153 0.000000 0.000000 0.000000
-11.43645859 6.43855238 492.72460938 153 153 153 0.000000 0.000000 0.000000
-11.45714092 6.43442965 492.75332642 153 153 153 0.000000 0.000000 0.000000
-11.45242596 6.43580627 492.75244141 153 153 153 0.000000 0.000000 0.000000
-11.44125652 6.43901730 492.73248291 153 153 153 0.000000 0.000000 0.000000
-11.44966602 6.43328190 492.73773193 153 153 153 0.000000 0.000000 0.000000
-11.44495869 6.43782854 492.73770142 153 153 153 0.000000 0.000000 0.000000
-11.42984581 6.43943310 492.69393921 153 153 153 0.000000 0.000000 0.000000
-11.44036961 6.43827438 492.73065186 153 153 153 0.000000 0.000000 0.000000
-11.43171406 6.44167566 492.71313477 153 153 153 0.000000 0.000000 0.000000
-11.44433117 6.44325972 492.69531250 153 153 153 0.000000 0.000000 0.000000
-11.44359779 6.43833733 492.72714233 153 153 153 0.000000 0.000000 0.000000
-11.44410038 6.43493652 492.73437500 153 153 153 0.000000 0.000000 0.000000
-11.44582558 6.44486809 492.73425293 153 153 153 0.000000 0.000000 0.000000
-11.43458462 6.43815708 492.71002197 153 153 153 0.000000 0.000000 0.000000
-11.44750595 6.43636608 492.74942017 153 153 153 0.000000 0.000000 0.000000
-11.44945812 6.44287491 492.74948120 153 153 153 0.000000 0.000000 0.000000
-11.45283318 6.43528605 492.72656250 153 153 153 0.000000 0.000000 0.000000
-11.45397186 6.43372011 492.77340698 153 153 153 0.000000 0.000000 0.000000
-11.43780518 6.44275427 492.72302246 153 153 153 0.000000 0.000000 0.000000
-11.45259285 6.44716358 492.73419189 153 153 153 0.000000 0.000000 0.000000
-11.45117283 6.43922901 492.72695923 153 153 153 0.000000 0.000000 0.000000
-11.43065739 6.43239784 492.70480347 153 153 153 0.000000 0.000000 0.000000
-11.44835854 6.44792318 492.72387695 153 153 153 0.000000 0.000000 0.000000
-11.43060017 6.43800497 492.70593262 153 153 153 0.000000 0.000000 0.000000
-11.45905781 6.44149256 492.76687622 153 153 153 0.000000 0.000000 0.000000
-11.43362331 6.44083834 492.71041870 153 153 153 0.000000 0.000000 0.000000
-11.44589233 6.43581438 492.75567627 153 153 153 0.000000 0.000000 0.000000
-11.43283176 6.44057655 492.72015381 153 153 153 0.000000 0.000000 0.000000
-11.44721889 6.43408394 492.73526001 153 153 153 0.000000 0.000000 0.000000
-11.43624592 6.43897152 492.69876099 153 153 153 0.000000 0.000000 0.000000
-11.45538998 6.44410324 492.74526978 153 153 153 0.000000 0.000000 0.000000
-11.44039249 6.43446112 492.68820190 153 153 153 0.000000 0.000000 0.000000
-11.43594265 6.43371630 492.70938110 153 153 153 0.000000 0.000000 0.000000
-11.45823383 6.43507576 492.75579834 153 153 153 0.000000 0.000000 0.000000
-11.43613625 6.43561506 492.68746948 153 153 153 0.000000 0.000000 0.000000
-11.45435238 6.44440842 492.75222778 153 153 153 0.000000 0.000000 0.000000
-11.45658779 6.43407154 492.76141357 153 153 153 0.000000 0.000000 0.000000
-11.44502354 6.43722630 492.71243286 153 153 153 0.000000 0.000000 0.000000
-11.44509315 6.43299341 492.73870850 153 153 153 0.000000 0.000000 0.000000
-11.43451977 6.43500185 492.69979858 153 153 153 0.000000 0.000000 0.000000
-11.45971870 6.43879986 492.75231934 153 153 153 0.000000 0.000000 0.000000
-11.45133209 6.43710327 492.74392700 153 153 153 0.000000 0.000000 0.000000
-11.45438099 6.43780088 492.74386597 153 153 153 0.000000 0.000000 0.000000
-11.45467091 6.43563938 492.75119019 153 153 153 0.000000 0.000000 0.000000
-11.43755245 6.43808079 492.70483398 153 153 153 0.000000 0.000000 0.000000
-11.45725727 6.44140100 492.75299072 153 153 153 0.000000 0.000000 0.000000
-11.44660950 6.43999290 492.72183228 153 153 153 0.000000 0.000000 0.000000
-11.43639946 6.43259192 492.71279907 153 153 153 0.000000 0.000000 0.000000
-11.44992447 6.44237137 492.73144531 153 153 153 0.000000 0.000000 0.000000
-11.44889927 6.44018459 492.71289063 153 153 153 0.000000 0.000000 0.000000
-11.45450592 6.43483925 492.76205444 153 153 153 0.000000 0.000000 0.000000
-11.45959187 6.43959570 492.76583862 153 153 153 0.000000 0.000000 0.000000
-11.45530987 6.43435764 492.75421143 153 153 153 0.000000 0.000000 0.000000
-11.44876099 6.43775654 492.75958252 153 153 153 0.000000 0.000000 0.000000
-11.44274712 6.43372250 492.73037720 153 153 153 0.000000 0.000000 0.000000
-11.45638180 6.43944073 492.75775146 153 153 153 0.000000 0.000000 0.000000
-11.44318771 6.43626308 492.70587158 153 153 153 0.000000 0.000000 0.000000
-11.43707371 6.43689346 492.68508911 153 153 153 0.000000 0.000000 0.000000
-11.44068336 6.43986797 492.72177124 153 153 153 0.000000 0.000000 0.000000
-11.45506573 6.43639612 492.77008057 153 153 153 0.000000 0.000000 0.000000
-11.44772816 6.43970299 492.71911621 153 153 153 0.000000 0.000000 0.000000
-11.43446159 6.44145870 492.72232056 153 153 153 0.000000 0.000000 0.000000
-11.45416927 6.44032907 492.75900269 153 153 153 0.000000 0.000000 0.000000
-11.44237995 6.44512749 492.73034668 153 153 153 0.000000 0.000000 0.000000
-11.44884491 6.43453836 492.72528076 153 153 153 0.000000 0.000000 0.000000
-11.44918346 6.43431664 492.73617554 153 153 153 0.000000 0.000000 0.000000
-11.43544006 6.43845415 492.69100952 153 153 153 0.000000 0.000000 0.000000
-11.44381428 6.43996859 492.72857666 153 153 153 0.000000 0.000000 0.000000
-11.44668007 6.44079208 492.72424316 153 153 153 0.000000 0.000000 0.000000
-11.43115807 6.43820095 492.70495605 153 153 153 0.000000 0.000000 0.000000
-11.45699310 6.44083357 492.74539185 153 153 153 0.000000 0.000000 0.000000
-11.44294930 6.44368124 492.72525024 153 153 153 0.000000 0.000000 0.000000
-11.44639111 6.43903160 492.72885132 153 153 153 0.000000 0.000000 0.000000
-11.44833660 6.43582201 492.73608398 153 153 153 0.000000 0.000000 0.000000
-11.44751167 6.44173861 492.73120117 153 153 153 0.000000 0.000000 0.000000
-11.43370914 6.43431759 492.70092773 153 153 153 0.000000 0.000000 0.000000
-11.45067978 6.44517899 492.74487305 153 153 153 0.000000 0.000000 0.000000
-11.43503666 6.43555212 492.69943237 153 153 153 0.000000 0.000000 0.000000
-11.43410397 6.43803358 492.71548462 153 153 153 0.000000 0.000000 0.000000
-11.43377686 6.43811607 492.71936035 153 153 153 0.000000 0.000000 0.000000
-11.44674397 6.44203186 492.72045898 153 153 153 0.000000 0.000000 0.000000
-11.44547939 6.43314695 492.73413086 153 153 153 0.000000 0.000000 0.000000
-11.43538284 6.43480110 492.71151733 153 153 153 0.000000 0.000000 0.000000
-11.45938587 6.43676186 492.76022339 153 153 153 0.000000 0.000000 0.000000
-11.44046783 6.44326162 492.71038818 153 153 153 0.000000 0.000000 0.000000
-11.44138527 6.43686008 492.73922729 153 153 153 0.000000 0.000000 0.000000
-11.45000076 6.44225883 492.73535156 153 153 153 0.000000 0.000000 0.000000
-11.43706894 6.44092464 492.72161865 153 153 153 0.000000 0.000000 0.000000
-11.42932987 6.42975903 492.70477295 153 153 153 0.000000 0.000000 0.000000
-11.44806099 6.44062614 492.74627686 153 153 153 0.000000 0.000000 0.000000
-11.44642544 6.43840456 492.75848389 153 153 153 0.000000 0.000000 0.000000
-11.43211079 6.43619299 492.74725342 153 153 153 0.000000 0.000000 0.000000
-11.43852997 6.43116283 492.71188354 153 153 153 0.000000 0.000000 0.000000
-11.45309925 6.44343376 492.74490356 153 153 153 0.000000 0.000000 0.000000
-11.43532753 6.43186855 492.69247437 153 153 153 0.000000 0.000000 0.000000
-11.45984268 6.44444275 492.76296997 153 153 153 0.000000 0.000000 0.000000
-11.44316864 6.43835068 492.71627808 153 153 153 0.000000 0.000000 0.000000
-11.44057178 6.43162441 492.71005249 153 153 153 0.000000 0.000000 0.000000
-11.43039131 6.44103289 492.69165039 153 153 153 0.000000 0.000000 0.000000
-11.44974518 6.43405867 492.73980713 153 153 153 0.000000 0.000000 0.000000
-11.45830345 6.43584967 492.75814819 153 153 153 0.000000 0.000000 0.000000
-11.44743443 6.43801403 492.73803711 153 153 153 0.000000 0.000000 0.000000
-11.44829750 6.43846035 492.71777344 153 153 153 0.000000 0.000000 0.000000
-11.45466709 6.44489098 492.74276733 153 153 153 0.000000 0.000000 0.000000
-11.42986488 6.43118095 492.69595337 153 153 153 0.000000 0.000000 0.000000
-11.44714832 6.43628359 492.74267578 153 153 153 0.000000 0.000000 0.000000
-11.44953823 6.43425322 492.73944092 153 153 153 0.000000 0.000000 0.000000
-11.43682671 6.42921257 492.72048950 153 153 153 0.000000 0.000000 0.000000
-11.44515228 6.43782330 492.73748779 153 153 153 0.000000 0.000000 0.000000
-11.45122623 6.43844366 492.74942017 153 153 153 0.000000 0.000000 0.000000
-11.44266605 6.44278145 492.72479248 153 153 153 0.000000 0.000000 0.000000
-11.43500996 6.43224907 492.72030640 153 153 153 0.000000 0.000000 0.000000
-11.45473671 6.44582939 492.75802612 153 153 153 0.000000 0.000000 0.000000
-11.45981693 6.43972111 492.74975586 153 153 153 0.000000 0.000000 0.000000
-11.45223236 6.43812799 492.75097656 153 153 153 0.000000 0.000000 0.000000
-11.43351269 6.43456936 492.69738770 153 153 153 0.000000 0.000000 0.000000
-11.44117355 6.43606997 492.73733521 153 153 153 0.000000 0.000000 0.000000
-11.43466377 6.43192816 492.72952271 153 153 153 0.000000 0.000000 0.000000
-11.45066261 6.43728685 492.73965454 153 153 153 0.000000 0.000000 0.000000
-11.45696926 6.44427109 492.74945068 153 153 153 0.000000 0.000000 0.000000
-11.45012569 6.43326473 492.73229980 153 153 153 0.000000 0.000000 0.000000
-11.44530869 6.43719530 492.73150635 153 153 153 0.000000 0.000000 0.000000
-11.43207073 6.43790293 492.70889282 153 153 153 0.000000 0.000000 0.000000
-11.44772434 6.44140005 492.71078491 153 153 153 0.000000 0.000000 0.000000
-11.43726063 6.43420839 492.70260620 153 153 153 0.000000 0.000000 0.000000
-11.45828342 6.44332123 492.74429321 153 153 153 0.000000 0.000000 0.000000
-11.44320965 6.44255686 492.71194458 153 153 153 0.000000 0.000000 0.000000
-11.44593430 6.43172169 492.71493530 153 153 153 0.000000 0.000000 0.000000
-11.45026970 6.43573952 492.74450684 153 153 153 0.000000 0.000000 0.000000
-11.45550537 6.43740892 492.76852417 153 153 153 0.000000 0.000000 0.000000
-11.43478584 6.44002724 492.70794678 153 153 153 0.000000 0.000000 0.000000
-11.43588829 6.43090439 492.70004272 153 153 153 0.000000 0.000000 0.000000
-11.43696976 6.44236851 492.71331787 153 153 153 0.000000 0.000000 0.000000
-11.45050430 6.43599224 492.73477173 153 153 153 0.000000 0.000000 0.000000
-11.44641304 6.43373394 492.73117065 153 153 153 0.000000 0.000000 0.000000
-11.45803738 6.43259287 492.75421143 153 153 153 0.000000 0.000000 0.000000
-11.44155979 6.43915033 492.72372437 153 153 153 0.000000 0.000000 0.000000
-11.43522263 6.43936872 492.67312622 153 153 153 0.000000 0.000000 0.000000
-11.43762779 6.44462299 492.72119141 153 153 153 0.000000 0.000000 0.000000
-11.44353580 6.44570208 492.72793579 153 153 153 0.000000 0.000000 0.000000
-11.44239712 6.44549704 492.74661255 153 153 153 0.000000 0.000000 0.000000
-11.43732738 6.43356943 492.69577026 153 153 153 0.000000 0.000000 0.000000
-11.45759487 6.44385529 492.75869751 153 153 153 0.000000 0.000000 0.000000
-11.43342686 6.44042873 492.68923950 153 153 153 0.000000 0.000000 0.000000
-11.45272064 6.43687296 492.74230957 153 153 153 0.000000 0.000000 0.000000
-11.45933437 6.44535542 492.76013184 153 153 153 0.000000 0.000000 0.000000
-11.44501591 6.44373322 492.71835327 153 153 153 0.000000 0.000000 0.000000
-11.44886017 6.43877220 492.74337769 153 153 153 0.000000 0.000000 0.000000
-11.45501137 6.43574095 492.75225830 153 153 153 0.000000 0.000000 0.000000
-11.44226360 6.43620968 492.72274780 153 153 153 0.000000 0.000000 0.000000
-11.44331932 6.43528557 492.70404053 153 153 153 0.000000 0.000000 0.000000
-11.45016766 6.43280983 492.73440552 153 153 153 0.000000 0.000000 0.000000
-11.45201302 6.43385315 492.77197266 153 153 153 0.000000 0.000000 0.000000
-11.44092941 6.44071627 492.73693848 153 153 153 0.000000 0.000000 0.000000
-11.45668983 6.43832445 492.77117920 153 153 153 0.000000 0.000000 0.000000
-11.45464706 6.44048691 492.74438477 153 153 153 0.000000 0.000000 0.000000
-11.43071938 6.43914890 492.71597290 153 153 153 0.000000 0.000000 0.000000
-11.42879772 6.43891716 492.69073486 153 153 153 0.000000 0.000000 0.000000
-11.45934296 6.44063473 492.75537109 153 153 153 0.000000 0.000000 0.000000
-11.45703506 6.43618250 492.75393677 153 153 153 0.000000 0.000000 0.000000
-11.45026875 6.43741846 492.75155640 153 153 153 0.000000 0.000000 0.000000
-11.44923687 6.43435192 492.72412109 153 153 153 0.000000 0.000000 0.000000
-11.43234634 6.43619442 492.69174194 153 153 153 0.000000 0.000000 0.000000
-11.43641663 6.43750620 492.70208740 153 153 153 0.000000 0.000000 0.000000
-11.45839119 6.44158697 492.75140381 153 153 153 0.000000 0.000000 0.000000
-11.44137192 6.43803263 492.71862793 153 153 153 0.000000 0.000000 0.000000
-11.45159054 6.44345140 492.75347900 153 153 153 0.000000 0.000000 0.000000
-11.44929028 6.44196081 492.74295044 153 153 153 0.000000 0.000000 0.000000
-11.44089890 6.43349934 492.72497559 153 153 153 0.000000 0.000000 0.000000
-11.43628502 6.44104147 492.72158813 153 153 153 0.000000 0.000000 0.000000
-11.44630527 6.43845558 492.71673584 153 153 153 0.000000 0.000000 0.000000
-11.44585514 6.44814587 492.74264526 153 153 153 0.000000 0.000000 0.000000
-11.44391727 6.43210840 492.74060059 153 153 153 0.000000 0.000000 0.000000
-11.44325924 6.43190145 492.71310425 153 153 153 0.000000 0.000000 0.000000
-11.43658352 6.43254280 492.68167114 153 153 153 0.000000 0.000000 0.000000
-11.44305229 6.44162512 492.71130371 153 153 153 0.000000 0.000000 0.000000
-11.44833088 6.44745255 492.74938965 153 153 153 0.000000 0.000000 0.000000
-11.45198345 6.44297838 492.74826050 153 153 153 0.000000 0.000000 0.000000
-11.44976807 6.43143797 492.72912598 153 153 153 0.000000 0.000000 0.000000
-11.45947075 6.44125700 492.74487305 153 153 153 0.000000 0.000000 0.000000
-11.45786095 6.44709396 492.74087524 153 153 153 0.000000 0.000000 0.000000
-11.43648720 6.43448114 492.74157715 153 153 153 0.000000 0.000000 0.000000
-11.44212341 6.44016361 492.71438599 153 153 153 0.000000 0.000000 0.000000
-11.43786144 6.43040466 492.73397827 153 153 153 0.000000 0.000000 0.000000
-11.43504238 6.43135405 492.69488525 153 153 153 0.000000 0.000000 0.000000
-11.45722580 6.44498396 492.75772095 153 153 153 0.000000 0.000000 0.000000
-11.43600082 6.43230200 492.70486450 153 153 153 0.000000 0.000000 0.000000
-11.44773769 6.43868637 492.76358032 153 153 153 0.000000 0.000000 0.000000
-11.43014812 6.43229437 492.70022583 153 153 153 0.000000 0.000000 0.000000
-11.45146942 6.43757868 492.75131226 153 153 153 0.000000 0.000000 0.000000
-11.45835209 6.43904638 492.76580811 153 153 153 0.000000 0.000000 0.000000
-11.44264507 6.43669605 492.72869873 153 153 153 0.000000 0.000000 0.000000
-11.43008614 6.43272209 492.70471191 153 153 153 0.000000 0.000000 0.000000
-11.44924355 6.43598747 492.74322510 153 153 153 0.000000 0.000000 0.000000
-11.45071983 6.43796587 492.75283813 153 153 153 0.000000 0.000000 0.000000
-11.44012165 6.43860102 492.68838501 153 153 153 0.000000 0.000000 0.000000
-11.45643997 6.43523788 492.75186157 153 153 153 0.000000 0.000000 0.000000
-11.44070721 6.43808937 492.72311401 153 153 153 0.000000 0.000000 0.000000
-11.43592644 6.43324804 492.71136475 153 153 153 0.000000 0.000000 0.000000
-11.45228386 6.44032526 492.72430420 153 153 153 0.000000 0.000000 0.000000
-11.45868587 6.43866110 492.75769043 153 153 153 0.000000 0.000000 0.000000
-11.45343494 6.43342495 492.74563599 153 153 153 0.000000 0.000000 0.000000
-11.44288158 6.44332457 492.72424316 153 153 153 0.000000 0.000000 0.000000
-11.43600655 6.44188690 492.69726563 153 153 153 0.000000 0.000000 0.000000
-11.46082687 6.43871260 492.76907349 153 153 153 0.000000 0.000000 0.000000
-11.44886112 6.44270754 492.73294067 153 153 153 0.000000 0.000000 0.000000
-11.43482876 6.44237614 492.71145630 153 153 153 0.000000 0.000000 0.000000
-11.42917347 6.43554258 492.69348145 153 153 153 0.000000 0.000000 0.000000
-11.44582844 6.44421864 492.71966553 153 153 153 0.000000 0.000000 0.000000
-11.43612576 6.44426918 492.73922729 153 153 153 0.000000 0.000000 0.000000
-11.45740318 6.43586016 492.75448608 153 153 153 0.000000 0.000000 0.000000
-11.46080494 6.43703318 492.75637817 153 153 153 0.000000 0.000000 0.000000
-11.45215893 6.43676901 492.75146484 153 153 153 0.000000 0.000000 0.000000
-11.45102119 6.43402910 492.73706055 153 153 153 0.000000 0.000000 0.000000
-11.43141365 6.44011736 492.70166016 153 153 153 0.000000 0.000000 0.000000
-11.43159866 6.43696594 492.72698975 153 153 153 0.000000 0.000000 0.000000
-11.44859791 6.43812084 492.73699951 153 153 153 0.000000 0.000000 0.000000
-11.43415642 6.44139957 492.71121216 153 153 153 0.000000 0.000000 0.000000
-11.45404053 6.43625641 492.75048828 153 153 153 0.000000 0.000000 0.000000
-11.44150639 6.44184399 492.72921753 153 153 153 0.000000 0.000000 0.000000
-11.44860840 6.43410492 492.72982788 153 153 153 0.000000 0.000000 0.000000
-11.43857288 6.43987989 492.70672607 153 153 153 0.000000 0.000000 0.000000
-11.45110893 6.43580294 492.74374390 153 153 153 0.000000 0.000000 0.000000
-11.45227337 6.44670963 492.75314331 153 153 153 0.000000 0.000000 0.000000
-11.43979454 6.43371964 492.72097778 153 153 153 0.000000 0.000000 0.000000
-11.44287300 6.43591738 492.74832153 153 153 153 0.000000 0.000000 0.000000
-11.44251251 6.43056726 492.69653320 153 153 153 0.000000 0.000000 0.000000
-11.44218731 6.43488216 492.72344971 153 153 153 0.000000 0.000000 0.000000
-11.43790436 6.43793631 492.71875000 153 153 153 0.000000 0.000000 0.000000
-11.43692207 6.43935442 492.71554565 153 153 153 0.000000 0.000000 0.000000
-11.44616318 6.44642067 492.73699951 153 153 153 0.000000 0.000000 0.000000
-11.45831299 6.43403006 492.75659180 153 153 153 0.000000 0.000000 0.000000
-11.44742107 6.43727303 492.73748779 153 153 153 0.000000 0.000000 0.000000
-11.43773079 6.44009542 492.71466064 153 153 153 0.000000 0.000000 0.000000
-11.45164871 6.43665934 492.74224854 153 153 153 0.000000 0.000000 0.000000
-11.43692112 6.42916584 492.71484375 153 153 153 0.000000 0.000000 0.000000
-11.45019627 6.44377565 492.74313354 153 153 153 0.000000 0.000000 0.000000
-11.44760609 6.44417572 492.72747803 153 153 153 0.000000 0.000000 0.000000
-11.44349003 6.43572855 492.73529053 153 153 153 0.000000 0.000000 0.000000
-11.43843365 6.43119860 492.70666504 153 153 153 0.000000 0.000000 0.000000
-11.43870926 6.43951130 492.74703979 153 153 153 0.000000 0.000000 0.000000
-11.45992374 6.43745661 492.74896240 153 153 153 0.000000 0.000000 0.000000
-11.43820000 6.44317436 492.69433594 153 153 153 0.000000 0.000000 0.000000
-11.45801640 6.44068861 492.74862671 153 153 153 0.000000 0.000000 0.000000
-11.43596458 6.43064117 492.69879150 153 153 153 0.000000 0.000000 0.000000
-11.45893192 6.43941212 492.75396729 153 153 153 0.000000 0.000000 0.000000
-11.44082260 6.43242455 492.72030640 153 153 153 0.000000 0.000000 0.000000
-11.45277023 6.44149685 492.75460815 153 153 153 0.000000 0.000000 0.000000
-11.45572758 6.43743706 492.73980713 153 153 153 0.000000 0.000000 0.000000
-11.44916821 6.43921232 492.73086548 153 153 153 0.000000 0.000000 0.000000
-11.45816994 6.44335604 492.75656128 153 153 153 0.000000 0.000000 0.000000
-11.44810581 6.43545818 492.74221802 153 153 153 0.000000 0.000000 0.000000
-11.42847824 6.43283939 492.69442749 153 153 153 0.000000 0.000000 0.000000
-11.45629406 6.43631983 492.74981689 153 153 153 0.000000 0.000000 0.000000
-11.44496155 6.43810654 492.72616577 153 153 153 0.000000 0.000000 0.000000
-11.43424606 6.43277216 492.70559692 153 153 153 0.000000 0.000000 0.000000
-11.45013618 6.44289351 492.73245239 153 153 153 0.000000 0.000000 0.000000
-11.45235252 6.43326616 492.75686646 153 153 153 0.000000 0.000000 0.000000
-11.45504284 6.43548107 492.75219727 153 153 153 0.000000 0.000000 0.000000
-11.44216633 6.43259764 492.70568848 153 153 153 0.000000 0.000000 0.000000
-11.45672226 6.43814468 492.76821899 153 153 153 0.000000 0.000000 0.000000
-11.45829201 6.43475914 492.75488281 153 153 153 0.000000 0.000000 0.000000
-11.45677376 6.43892145 492.75860596 153 153 153 0.000000 0.000000 0.000000
-11.43869972 6.43884897 492.72030640 153 153 153 0.000000 0.000000 0.000000
-11.44233799 6.44290543 492.71640015 153 153 153 0.000000 0.000000 0.000000
-11.44093609 6.43479729 492.72055054 153 153 153 0.000000 0.000000 0.000000
-11.45638084 6.43425703 492.75946045 153 153 153 0.000000 0.000000 0.000000
-11.45304108 6.43489885 492.75259399 153 153 153 0.000000 0.000000 0.000000
-11.44674683 6.44411421 492.73184204 153 153 153 0.000000 0.000000 0.000000
-11.44913387 6.43580389 492.73144531 153 153 153 0.000000 0.000000 0.000000
-11.43477058 6.43535280 492.69775391 153 153 153 0.000000 0.000000 0.000000
-11.44017315 6.44082832 492.71759033 153 153 153 0.000000 0.000000 0.000000
-11.45593929 6.43390846 492.76480103 153 153 153 0.000000 0.000000 0.000000
-11.43300438 6.43293905 492.70794678 153 153 153 0.000000 0.000000 0.000000
-11.45667839 6.43616199 492.74734497 153 153 153 0.000000 0.000000 0.000000
-11.43963146 6.43662119 492.74072266 153 153 153 0.000000 0.000000 0.000000
-11.43791580 6.43469620 492.69238281 153 153 153 0.000000 0.000000 0.000000
-11.44588757 6.43235683 492.72747803 153 153 153 0.000000 0.000000 0.000000
-11.44911480 6.44542122 492.75247192 153 153 153 0.000000 0.000000 0.000000
-11.43519306 6.43159151 492.71200562 153 153 153 0.000000 0.000000 0.000000
-11.45289326 6.44315434 492.74298096 153 153 153 0.000000 0.000000 0.000000
-11.44625664 6.43438816 492.71862793 153 153 153 0.000000 0.000000 0.000000
-11.43717480 6.43981552 492.71688843 153 153 153 0.000000 0.000000 0.000000
-11.44196320 6.43738365 492.71865845 153 153 153 0.000000 0.000000 0.000000
-11.44635582 6.44815731 492.74249268 153 153 153 0.000000 0.000000 0.000000
-11.43552971 6.43495178 492.71606445 153 153 153 0.000000 0.000000 0.000000
